108.102814 135.340118 -88.302681
108.106232 136.340118 -88.302681
105.229828 137.340118 -91.847221
105.584045 137.340118 -91.302681
105.229828 138.340118 -91.847099
105.571167 138.340118 -91.302681
106.349945 137.340118 -90.302681
106.229828 138.340118 -90.472115
105.229828 139.340118 -91.840919
105.640747 139.340118 -91.302681
105.229828 140.340118 -91.779549
105.658783 140.340118 -91.302681
106.229828 139.340118 -90.629219
106.229828 140.340118 -90.660271
106.386963 138.340118 -90.302681
106.513489 139.340118 -90.302681
106.529663 140.340118 -90.302681
107.355499 137.340118 -89.302681
107.369049 138.340118 -89.302681
108.229828 137.340118 -88.158806
108.100616 138.340118 -88.302681
107.229828 139.340118 -89.482948
107.387878 139.340118 -89.302681
107.229828 140.340118 -89.465584
107.379944 140.340118 -89.302681
108.096649 139.340118 -88.302681
108.099701 140.340118 -88.302681
108.989746 133.340118 -87.302681
108.839417 134.340118 -87.302681
109.229828 133.340118 -86.980751
109.744263 133.340118 -86.302681
109.229828 134.340118 -86.749458
109.563202 134.340118 -86.302681
108.229828 135.340118 -88.114784
108.229828 136.340118 -88.117561
108.749786 135.340118 -87.302681
108.749847 136.340118 -87.302681
109.229828 135.340118 -86.601082
109.449341 135.340118 -86.302681
109.229828 136.340118 -86.562630
109.406433 136.340118 -86.302681
110.229828 133.340118 -85.632072
110.287354 134.340118 -85.302681
110.229828 134.729919 -85.302681
110.229828 135.340118 -85.197609
110.057861 136.340118 -85.302681
110.229828 136.340118 -85.036446
108.229828 138.340118 -88.093910
108.751434 137.340118 -87.302681
108.688782 138.340118 -87.302681
109.229828 137.340118 -86.529366
109.377655 137.340118 -86.302681
109.272034 138.340118 -86.302681
108.229828 139.340118 -88.077965
108.229828 140.340118 -88.063683
108.652100 139.340118 -87.302681
108.587891 140.340118 -87.302681
109.229828 138.737946 -86.302681
109.229828 139.340118 -86.192711
109.046875 140.340118 -86.302681
109.999908 137.340118 -85.302681
109.895905 138.340118 -85.302681
110.229828 137.340118 -84.909859
110.229828 138.340118 -84.711784
109.763702 139.340118 -85.302681
109.229828 140.340118 -85.946281
109.624939 140.340118 -85.302681
110.229828 139.340118 -84.490105
110.234894 140.340118 -84.302681
110.477081 133.340118 -85.302681
111.229828 133.172943 -84.302681
110.999146 134.340118 -84.302681
110.830902 135.340118 -84.302681
110.667999 136.340118 -84.302681
110.549774 137.340118 -84.302681
110.435669 138.340118 -84.302681
110.326630 139.340118 -84.302681
114.229828 126.340126 -84.115776
114.307159 127.340126 -83.302681
113.229828 128.340118 -83.988960
113.764099 128.340118 -83.302681
114.229828 128.340118 -82.650963
115.229828 125.340126 -83.494026
115.372314 125.340126 -83.302681
115.229828 125.588631 -83.302681
114.839264 126.340126 -83.302681
116.229828 125.048103 -82.302681
116.069336 125.340126 -82.302681
115.229828 126.340126 -82.744072
115.529266 126.340126 -82.302681
115.229828 126.915077 -82.302681
114.999634 127.340126 -82.302681
114.462280 128.340118 -82.302681
116.229828 125.340126 -82.059029
116.229828 126.246071 -81.302681
116.734955 125.340126 -81.302681
117.229828 125.340126 -80.526192
117.363708 125.340126 -80.302681
117.229828 125.572853 -80.302681
116.812836 126.340126 -80.302681
115.229828 127.340126 -81.949257
115.665710 127.340126 -81.302681
115.229828 128.131897 -81.302681
115.229828 128.340118 -81.147041
116.281250 127.340126 -80.302681
115.761932 128.340118 -80.302681
112.229828 130.340118 -84.050087
113.239349 129.340118 -83.302681
112.799683 130.340118 -83.302681
114.229828 128.791870 -82.302681
113.955109 129.340118 -82.302681
113.229828 130.340118 -82.683556
113.486176 130.340118 -82.302681
112.229828 131.340118 -83.572075
112.229828 131.929565 -83.302681
112.229828 132.340118 -83.144264
112.421417 131.340118 -83.302681
113.229828 130.939819 -82.302681
113.071899 131.340118 -82.302681
112.747009 132.340118 -82.302681
114.229828 129.340118 -81.865074
114.229828 130.087708 -81.302681
114.229828 130.340118 -81.143227
113.229828 131.340118 -82.033867
113.692993 131.340118 -81.302681
113.315338 132.340118 -81.302681
114.304321 131.340118 -80.302681
113.929749 132.340118 -80.302681
114.595459 129.340118 -81.302681
115.229828 129.330139 -80.302681
114.750397 130.340118 -80.302681
118.229828 124.868080 -79.302681
117.976288 125.340126 -79.302681
117.229828 126.340126 -79.584663
117.407166 126.340126 -79.302681
118.229828 125.340126 -78.875221
118.229828 125.894966 -78.302681
117.996246 126.340126 -78.302681
116.229828 128.340118 -79.502647
117.229828 126.659309 -79.302681
116.862885 127.340126 -79.302681
116.347321 128.340118 -79.302681
117.229828 127.340126 -78.672874
117.439880 127.340126 -78.302681
117.229828 127.717323 -78.302681
116.918060 128.340118 -78.302681
118.229828 126.340126 -77.847420
118.229828 126.901955 -77.302681
117.999023 127.340126 -77.302681
117.229828 128.340118 -77.718178
117.467407 128.340118 -77.302681
118.229828 127.340126 -76.879250
118.229828 127.888008 -76.302681
118.015015 128.340118 -76.302681
114.229828 132.340118 -79.771828
116.229828 128.574982 -79.302681
115.842133 129.340118 -79.302681
115.229828 130.340118 -79.497337
115.349640 130.340118 -79.302681
116.229828 129.340118 -78.627815
116.229828 129.691406 -78.302681
115.926178 130.340118 -78.302681
116.405945 129.340118 -78.302681
115.229828 130.611420 -79.302681
114.902802 131.340118 -79.302681
114.504395 132.340118 -79.302681
115.229828 131.340118 -78.728661
115.461670 131.340118 -78.302681
115.229828 131.847412 -78.302681
115.049774 132.340118 -78.302681
116.229828 130.340118 -77.738686
117.229828 128.797028 -77.302681
116.945007 129.340118 -77.302681
116.464325 130.340118 -77.302681
117.229828 129.340118 -76.789131
117.489075 129.340118 -76.302681
117.229828 129.832001 -76.302681
116.998657 130.340118 -76.302681
116.229828 130.862152 -77.302681
116.022614 131.340118 -77.302681
115.229828 132.340118 -77.964348
115.616882 132.340118 -77.302681
116.229828 131.340118 -76.925301
116.229828 132.134155 -76.302681
116.229828 132.340118 -76.157539
116.555023 131.340118 -76.302681
111.874695 133.340118 -83.302681
111.229828 134.340118 -83.938820
111.659088 134.340118 -83.302681
112.229828 133.340118 -82.727852
112.268372 134.340118 -82.302681
112.479797 133.340118 -82.302681
111.229828 135.340118 -83.661446
111.470917 135.340118 -83.302681
111.275452 136.340118 -83.302681
112.229828 134.543396 -82.302681
112.092438 135.340118 -82.302681
111.897308 136.340118 -82.302681
113.229828 132.631653 -81.302681
113.041077 133.340118 -81.302681
112.842468 134.340118 -81.302681
113.229828 133.340118 -80.981438
113.623566 133.340118 -80.302681
113.229828 134.340118 -80.588875
113.378571 134.340118 -80.302681
112.229828 135.340118 -82.060097
112.229828 136.340118 -81.708488
112.663177 135.340118 -81.302681
112.461945 136.340118 -81.302681
113.229828 135.042542 -80.302681
113.229828 135.340118 -80.175163
112.981079 136.340118 -80.302681
111.229828 136.635803 -83.302681
111.229828 137.340118 -83.141594
111.004791 138.340118 -83.302681
111.742554 137.340118 -82.302681
111.229828 138.340118 -82.930473
111.608215 138.340118 -82.302681
110.904785 139.340118 -83.302681
110.852875 140.340118 -83.302681
111.229828 139.340118 -82.742882
111.481110 139.340118 -82.302681
111.229828 140.340118 -82.635918
111.407898 140.340118 -82.302681
112.289886 137.340118 -81.302681
112.229828 137.720703 -81.302681
112.229828 138.340118 -81.149101
118.229828 148.758804 -17.302668
118.229828 148.340134 -16.999933
118.352882 148.340134 -17.302668
112.820862 137.340118 -80.302681
112.672943 138.340118 -80.302681
112.016876 139.340118 -81.302681
111.910919 140.340118 -81.302681
112.229828 139.340118 -80.877434
118.229828 150.092056 -18.302668
118.229828 149.340134 -17.748194
118.448128 149.340134 -18.302668
112.229828 140.340118 -80.621529
112.511566 139.340118 -80.302681
112.375854 140.340118 -80.302681
114.229828 133.160919 -79.302681
118.750587 148.340134 -18.302668
113.908905 134.340118 -79.302681
114.229828 134.340118 -78.678764
114.229828 133.340118 -79.199394
113.682068 135.340118 -79.302681
113.229828 136.340118 -79.788033
118.229828 151.340134 -19.251780
118.162201 150.340134 -18.302668
118.553413 150.340134 -19.302668
113.489166 136.340118 -79.302681
114.229828 135.157257 -78.302681
118.229828 151.398972 -19.302668
114.009003 136.340118 -78.302681
118.604805 151.340134 -20.302668
118.229828 152.340134 -20.101389
114.229828 136.340118 -77.835960
118.292702 152.340134 -20.302668
114.706360 133.340118 -78.302681
114.421906 134.340118 -78.302681
115.267883 133.340118 -77.302681
118.926704 150.340134 -20.302668
114.969543 134.340118 -77.302681
115.817139 133.340118 -76.302681
115.229828 134.340118 -76.831108
118.853951 149.340134 -19.302668
115.498138 134.340118 -76.302681
114.720795 135.340118 -77.302681
114.504974 136.340118 -77.302681
115.229828 135.319794 -76.302681
114.990509 136.340118 -76.302681
113.318848 137.340118 -79.302681
119.155434 148.340134 -19.302668
113.229828 137.870117 -79.302681
113.229828 138.340118 -79.168678
113.833282 137.340118 -78.302681
119.229836 149.390274 -20.302668
113.666138 138.340118 -78.302681
112.992615 139.340118 -79.302681
112.848450 140.340118 -79.302681
113.229828 139.340118 -78.811546
119.536873 148.340134 -20.302668
113.478424 139.340118 -78.302681
113.314240 140.340118 -78.302681
114.307281 137.340118 -77.302681
114.229828 137.734344 -77.302681
114.131744 138.340118 -77.302681
114.229828 138.340118 -77.092110
113.948639 139.340118 -77.302681
113.778320 140.340118 -77.302681
114.229828 139.340118 -76.642128
114.229828 139.975250 -76.302681
114.229828 140.340118 -76.135048
118.229828 145.546432 -14.302666
118.229828 145.340134 -14.063805
118.307137 145.340134 -14.302666
118.646553 144.340134 -14.302666
118.229828 144.566391 -13.302666
114.771088 137.340118 -76.302681
114.568604 138.340118 -76.302681
114.361206 139.340118 -76.302681
118.538734 125.340126 -78.302681
119.229836 125.076729 -77.302681
119.078560 125.340126 -77.302681
118.520393 126.340126 -77.302681
119.229836 125.340126 -77.030067
119.589241 125.340126 -76.302681
119.229836 125.990883 -76.302681
119.046974 126.340126 -76.302681
118.517799 127.340126 -76.302681
102.670166 141.340134 -94.302689
102.467072 142.340134 -94.302689
118.229828 144.340134 -13.120308
103.229828 141.340134 -93.792786
103.713135 141.340134 -93.302689
103.229828 142.340134 -93.625351
103.545563 142.340134 -93.302689
104.229828 141.340134 -92.793228
104.229828 142.340134 -92.657440
104.752472 141.340134 -92.302689
104.648041 142.340134 -92.302689
103.331940 143.340134 -93.302689
118.229828 147.560074 -16.302666
118.229828 147.340134 -16.066658
118.307961 147.340134 -16.302666
103.229828 144.128036 -93.302689
103.229828 144.340134 -93.280060
118.647255 146.340134 -16.302666
118.229828 146.544998 -15.302667
104.229828 143.340134 -92.467911
104.229828 144.313675 -92.302689
118.229828 146.340134 -15.120507
104.425720 143.340134 -92.302689
118.652260 145.340134 -15.302667
103.003326 145.340134 -93.302689
102.900452 146.340134 -93.302689
103.229828 145.340134 -93.111237
103.999084 145.340134 -92.302689
103.229828 146.340134 -92.973267
103.785461 146.340134 -92.302689
103.027100 147.340134 -93.302689
103.736603 147.340134 -92.302689
118.999672 144.340134 -15.302667
119.007088 145.340134 -16.302666
105.229828 141.340134 -91.791801
105.667603 141.340134 -91.302681
105.229828 142.340134 -91.748894
105.643646 142.340134 -91.302681
106.229828 141.340134 -90.616325
106.229828 142.340134 -90.596458
119.229836 144.730789 -16.302666
119.229836 144.340134 -15.921105
119.355446 144.340134 -16.302666
105.229828 143.340134 -91.557961
105.477966 143.340134 -91.302681
105.229828 144.206284 -91.302681
106.323883 143.340134 -90.302681
106.229828 143.670425 -90.302681
106.039886 144.340134 -90.302681
118.654030 143.340134 -13.302666
106.229828 144.340134 -90.037636
106.490479 141.340134 -90.302681
106.468719 142.340134 -90.302681
119.052956 142.340134 -13.302666
107.334473 141.340134 -89.302681
107.247192 142.340134 -89.302681
119.015419 143.340134 -14.302666
119.229836 142.814102 -14.302666
119.229836 142.340134 -13.764641
119.418282 142.340134 -14.302666
108.037567 141.340134 -88.302681
107.929810 142.340134 -88.302681
107.059601 143.340134 -89.302681
106.778351 144.340134 -89.302681
107.229828 143.340134 -89.069191
107.786072 143.340134 -88.302681
107.229828 144.340134 -88.720970
107.587402 144.340134 -88.302681
104.229828 145.340134 -92.027016
120.229836 140.581467 -14.302666
120.229836 140.340118 -13.975929
120.343239 140.340118 -14.302666
104.229828 146.340134 -91.701439
104.825409 145.340134 -91.302681
104.526184 146.340134 -91.302681
105.229828 145.340134 -90.801857
119.229836 141.911850 -13.302666
119.229836 141.340134 -12.607353
119.496529 141.340134 -13.302666
105.658447 145.340134 -90.302681
105.292084 146.340134 -90.302681
104.229828 147.340134 -91.551720
104.404449 147.340134 -91.302681
104.277283 148.340134 -91.302681
105.229828 146.623093 -90.302681
105.229828 147.340134 -90.133308
104.985046 148.340134 -90.302681
106.229828 145.340134 -89.552605
106.229828 145.786362 -89.302681
106.045746 146.340134 -89.302681
106.229828 146.340134 -89.073357
105.817657 147.340134 -89.302681
105.229828 148.340134 -89.909142
105.672272 148.340134 -89.302681
106.229828 147.340134 -88.761192
106.229828 148.340134 -88.592110
106.431641 145.340134 -89.302681
107.230438 145.340134 -88.302681
119.987526 140.340118 -13.302666
106.837219 146.340134 -88.302681
119.866341 141.340134 -14.302666
106.577972 147.340134 -88.302681
106.449280 148.340134 -88.302681
108.229828 141.340134 -87.926277
108.229828 142.340134 -87.752144
108.492798 141.340134 -87.302681
108.439514 142.340134 -87.302681
108.914032 141.340134 -86.302681
108.861267 142.340134 -86.302681
108.229828 143.340134 -87.567543
108.233704 144.340134 -87.302681
108.364563 143.340134 -87.302681
108.788177 143.340134 -86.302681
108.682465 144.340134 -86.302681
109.229828 141.340134 -85.672874
109.460876 141.340134 -85.302681
109.229828 142.340134 -85.513771
109.353516 142.340134 -85.302681
110.103455 141.340134 -84.302681
109.967346 142.340134 -84.302681
109.229828 143.247696 -85.302681
109.081146 144.340134 -85.302681
109.779572 143.340134 -84.302681
109.229828 144.340134 -84.978630
109.568634 144.340134 -84.302681
119.229836 143.679703 -15.302667
119.229836 143.340134 -14.929086
119.367714 143.340134 -15.302667
107.997375 145.340134 -87.302681
107.229828 146.340134 -87.747887
107.601685 146.340134 -87.302681
108.229828 145.340134 -86.901024
108.244385 146.340134 -86.302681
108.542175 145.340134 -86.302681
119.781990 142.340134 -15.302667
107.288116 147.340134 -87.302681
107.229828 147.651382 -87.302681
107.229828 148.340134 -87.150047
107.981934 147.340134 -86.302681
119.725533 143.340134 -16.302666
107.724365 148.340134 -86.302681
108.975311 145.340134 -85.302681
108.818085 146.340134 -85.302681
109.229828 145.340134 -84.695381
109.402222 145.340134 -84.302681
109.229828 146.297470 -84.302681
108.229828 147.340134 -85.884377
108.229828 148.281357 -85.302681
120.127052 142.340134 -16.302666
108.558380 147.340134 -85.302681
109.019135 147.340134 -84.302681
108.772980 148.340134 -84.302681
120.685677 140.340118 -15.302667
120.229836 141.310654 -15.302667
120.229836 142.088699 -16.302666
120.229836 141.340134 -15.340814
120.556252 141.340134 -16.302666
121.023476 140.340118 -16.302666
105.328644 149.340134 -89.302681
106.229828 149.147476 -88.302681
106.229828 149.340134 -88.214439
105.229828 149.538437 -89.302681
105.688873 150.340134 -88.302681
118.673927 147.340134 -17.302668
119.010780 146.340134 -17.302668
119.072212 147.340134 -18.302668
119.229836 146.872818 -18.302668
119.229836 146.340134 -17.854227
119.394356 146.340134 -18.302668
119.229836 145.691208 -17.302668
119.229836 145.340134 -16.960794
119.359444 145.340134 -17.302668
106.229828 150.340134 -87.553185
119.716957 144.340134 -17.302668
106.845856 149.340134 -87.302681
106.389374 150.340134 -87.302681
107.229828 149.340134 -86.447533
119.733711 145.340134 -18.302668
106.896362 150.340134 -86.302681
106.229828 150.700119 -87.302681
106.229828 151.340134 -86.918968
106.564148 151.340134 -86.302681
107.851990 149.340134 -85.302681
107.229828 150.340134 -85.604195
107.422546 150.340134 -85.302681
108.229828 149.340134 -84.690285
120.082771 144.340134 -18.302668
108.229828 149.947159 -84.302681
108.084167 150.340134 -84.302681
108.469360 149.340134 -84.302681
107.229828 150.818619 -85.302681
107.052032 151.340134 -85.302681
107.229828 151.340134 -85.013206
107.716614 151.340134 -84.302681
106.692108 152.340134 -85.302681
107.302155 152.340134 -84.302681
119.229836 148.072342 -19.302668
119.229836 147.340134 -18.717096
119.462990 147.340134 -19.302668
119.778725 146.340134 -19.302668
119.831856 147.340134 -20.302668
120.135017 146.340134 -20.302668
120.229836 144.944748 -19.302668
120.229836 144.340134 -18.725061
120.434792 144.340134 -19.302668
120.229836 146.026505 -20.302668
120.229836 145.340134 -19.667749
120.447029 145.340134 -20.302668
120.780830 144.340134 -20.302668
110.229828 141.340134 -84.094307
110.229828 142.340134 -83.860191
110.229828 143.340134 -83.499947
110.229828 143.748581 -83.302681
110.101868 144.340134 -83.302681
110.229828 144.340134 -83.071342
109.891937 145.340134 -83.302681
120.096687 145.340134 -19.302668
109.680054 146.340134 -83.302681
110.229828 145.340134 -82.638924
110.229828 146.008041 -82.302681
110.229828 146.340134 -82.155235
109.229828 147.340134 -83.814217
109.473694 147.340134 -83.302681
109.244934 148.340134 -83.302681
109.954041 147.340134 -82.302681
109.737183 148.340134 -82.302681
110.229828 147.340134 -81.708443
110.229828 148.118698 -81.302681
110.229828 148.340134 -81.200356
110.748901 141.340134 -83.302681
110.586823 142.340134 -83.302681
111.275482 141.340134 -82.302681
122.229836 140.584518 -20.302668
122.229836 140.340118 -19.960611
122.328224 140.340118 -20.302668
111.229828 141.567001 -82.302681
111.092407 142.340134 -82.302681
120.229836 142.954330 -17.302668
120.229836 142.340134 -16.616495
120.473763 142.340134 -17.302668
110.354614 143.340134 -83.302681
110.891754 143.340134 -82.302681
110.649628 144.340134 -82.302681
111.747467 141.340134 -81.302681
111.229828 142.340134 -81.980095
111.546753 142.340134 -81.302681
112.229828 141.184036 -80.302681
120.229836 143.905655 -18.302668
120.229836 143.340134 -17.713572
120.440681 143.340134 -18.302668
112.013824 142.340134 -80.302681
111.229828 143.340134 -81.554070
111.354797 143.340134 -81.302681
111.229828 143.854446 -81.302681
111.131927 144.340134 -81.302681
111.834991 143.340134 -80.302681
111.229828 144.340134 -81.109474
111.615692 144.340134 -80.302681
110.405121 145.340134 -82.302681
110.925537 145.340134 -81.302681
110.698730 146.340134 -81.302681
111.229828 145.340134 -80.674202
111.393646 145.340134 -80.302681
111.229828 146.002731 -80.302681
111.152130 146.340134 -80.302681
110.442963 147.340134 -81.302681
110.884766 147.340134 -80.302681
110.625854 148.340134 -80.302681
120.825905 142.340134 -18.302668
112.229828 142.340134 -79.810768
112.687286 141.340134 -79.302681
112.476227 142.340134 -79.302681
113.229828 140.866837 -78.302681
113.140961 141.340134 -78.302681
112.918549 142.340134 -78.302681
112.269989 143.340134 -79.302681
120.082832 143.340134 -17.302668
112.063629 144.340134 -79.302681
112.229828 144.340134 -78.917809
112.708221 143.340134 -78.302681
112.501343 144.340134 -78.302681
113.229828 141.340134 -78.087929
113.583130 141.340134 -77.302681
113.229828 142.340134 -77.547340
113.340179 142.340134 -77.302681
113.991699 141.340134 -76.302681
113.777039 142.340134 -76.302681
113.229828 142.850784 -77.302681
113.128876 143.340134 -77.302681
112.928650 144.340134 -77.302681
113.229828 143.340134 -77.081322
113.566864 143.340134 -76.302681
113.229828 144.340134 -76.590782
113.346558 144.340134 -76.302681
111.843628 145.340134 -79.302681
111.229828 146.340134 -80.101448
111.597717 146.340134 -79.302681
112.277008 145.340134 -78.302681
112.229828 145.546585 -78.302681
112.063812 146.340134 -78.302681
111.318726 147.340134 -79.302681
111.229828 147.645035 -79.302681
111.067139 148.340134 -79.302681
111.815796 147.340134 -78.302681
111.229828 148.340134 -78.963295
111.547394 148.340134 -78.302681
112.229828 146.340134 -77.927650
112.710938 145.340134 -77.302681
112.504364 146.340134 -77.302681
113.229828 144.838150 -76.302681
113.111420 145.340134 -76.302681
112.903015 146.340134 -76.302681
112.272186 147.340134 -77.302681
112.022614 148.340134 -77.302681
112.229828 148.340134 -76.827446
120.899086 141.340134 -17.302668
112.690857 147.340134 -76.302681
121.229836 140.622787 -17.302668
121.229836 140.340118 -16.950876
121.355629 140.340118 -17.302668
112.446716 148.340134 -76.302681
108.229828 150.340134 -84.058128
108.976135 149.340134 -83.302681
108.639679 150.340134 -83.302681
109.229828 149.340134 -82.745399
109.439941 149.340134 -82.302681
109.229828 149.920029 -82.302681
109.087402 150.340134 -82.302681
108.282776 151.340134 -83.302681
107.887299 152.340134 -83.302681
108.229828 152.340134 -82.585152
121.229836 141.340134 -18.280176
121.696388 140.340118 -18.302668
108.749146 151.340134 -82.302681
108.365753 152.340134 -82.302681
109.909790 149.340134 -81.302681
109.229828 150.340134 -81.978844
109.573242 150.340134 -81.302681
110.229828 149.340134 -80.607353
110.229828 149.781570 -80.302681
110.080383 150.340134 -80.302681
109.229828 151.312637 -81.302681
108.893707 152.340134 -81.302681
120.793678 143.340134 -19.302668
109.768585 151.340134 -80.302681
109.229828 152.340134 -80.681786
109.429840 152.340134 -80.302681
121.229836 142.340134 -19.467463
108.229828 152.690445 -82.302681
108.229828 153.340134 -81.848488
108.532532 153.340134 -81.302681
109.229828 152.890121 -80.302681
109.057434 153.340134 -80.302681
121.136177 143.340134 -20.302668
121.229836 143.095139 -20.302668
121.507454 142.340134 -20.302668
110.229828 150.340134 -79.966286
110.230988 151.340134 -79.302681
109.932129 152.340134 -79.302681
110.229828 152.340134 -78.663231
109.229828 153.340134 -79.942177
109.572937 153.340134 -79.302681
108.662292 154.340134 -80.302681
109.229828 154.185776 -79.302681
110.229828 152.871658 -78.302681
110.074707 153.340134 -78.302681
121.575356 141.340134 -19.302668
121.229836 142.171402 -19.302668
109.703094 154.340134 -78.302681
122.018013 140.340118 -19.302668
121.907967 141.340134 -20.302668
110.229828 153.340134 -77.965431
110.229828 154.284225 -77.302681
109.826080 155.340134 -77.302681
110.229828 155.340134 -76.577782
118.620491 152.340134 -21.302668
118.229828 153.340134 -21.063471
118.229828 152.559067 -20.302668
110.361542 149.340134 -80.302681
110.825043 149.340134 -79.302681
110.550659 150.340134 -79.302681
111.282684 149.340134 -78.302681
118.314339 153.340134 -21.302668
110.996307 150.340134 -78.302681
110.687927 151.340134 -78.302681
118.659370 153.340134 -22.302668
110.389954 152.340134 -78.302681
111.763275 149.340134 -77.302681
111.229828 150.340134 -77.780586
118.970619 152.340134 -22.302668
111.469391 150.340134 -77.302681
112.229828 149.183212 -76.302681
111.925323 150.340134 -76.302681
111.229828 151.094193 -77.302681
111.229828 151.340134 -77.149513
110.866180 152.340134 -77.302681
111.621582 151.340134 -76.302681
111.229828 152.340134 -76.559181
111.343811 152.340134 -76.302681
110.571472 153.340134 -77.302681
111.229828 152.791580 -76.302681
111.069458 153.340134 -76.302681
110.740204 154.340134 -76.302681
110.370117 155.340134 -76.302681
119.027168 153.340134 -23.302668
118.699165 154.340134 -23.302668
119.229836 152.710983 -23.302668
119.229836 152.340134 -23.024363
119.334419 152.340134 -23.302668
119.229836 153.756790 -24.302670
119.229836 153.340134 -23.856989
119.366737 153.340134 -24.302670
119.039955 154.340134 -24.302670
119.675331 152.340134 -24.302670
118.950111 151.340134 -21.302668
119.229836 150.504532 -21.302668
119.229836 150.340134 -21.169779
119.229836 151.536148 -22.302668
119.229836 151.340134 -22.091776
119.298927 151.340134 -22.302668
119.627632 150.340134 -22.302668
119.598457 149.340134 -21.302668
119.889503 148.340134 -21.302668
119.942146 149.340134 -22.302668
120.229836 148.314255 -22.302668
120.229836 150.562057 -24.302670
120.229836 150.340134 -24.088190
120.294685 150.340134 -24.302670
119.655617 151.340134 -23.302668
119.971962 150.340134 -23.302668
119.994179 151.340134 -24.302670
120.229836 149.340134 -23.177820
120.557930 148.340134 -23.302668
120.229836 149.476913 -23.302668
120.583199 149.340134 -24.302670
120.878731 148.340134 -24.302670
119.638588 154.340134 -26.302670
119.229836 155.340134 -26.054256
119.229836 154.725418 -25.302670
119.293037 155.340134 -26.302670
119.355354 154.340134 -25.302670
119.682594 153.340134 -25.302670
119.229836 154.340134 -24.912960
119.989754 152.340134 -25.302670
119.974739 153.340134 -26.302670
120.229836 152.523544 -26.302670
120.229836 152.340134 -26.116146
122.902534 109.340118 -75.302681
123.229836 110.340118 -75.131752
123.229836 109.018524 -74.302681
123.229836 109.340118 -74.560188
123.332619 109.340118 -74.302681
119.569618 155.340134 -27.302670
123.580849 110.340118 -74.302681
123.229836 110.802551 -75.302681
123.307625 111.340118 -75.302681
119.910225 154.340134 -27.302670
123.229836 112.340118 -75.661003
123.399788 112.340118 -75.302681
123.743385 111.340118 -74.302681
123.844368 112.340118 -74.302681
123.770638 109.340118 -73.302681
124.015877 110.340118 -73.302681
124.229836 109.340118 -72.269127
124.229836 110.340118 -72.823204
124.451332 110.340118 -72.302681
124.229836 111.340118 -73.161507
124.229836 111.915955 -73.302681
124.263924 112.340118 -73.302681
119.840858 155.340134 -28.302670
120.229836 154.179276 -28.302670
120.567299 152.340134 -27.302670
120.229836 153.340134 -27.235104
124.597084 111.340118 -72.302681
124.690071 112.340118 -72.302681
123.229836 113.340118 -75.708443
123.424171 113.340118 -75.302681
123.229836 114.340118 -75.663872
123.400887 114.340118 -75.302681
123.871895 113.340118 -74.302681
123.839058 114.340118 -74.302681
123.229836 115.340118 -75.510506
123.329445 115.340118 -75.302681
123.229836 116.050568 -75.302681
123.229836 116.340118 -75.209648
123.766945 115.340118 -74.302681
123.626289 116.340118 -74.302681
124.291206 113.340118 -73.302681
124.249031 114.340118 -73.302681
120.515846 153.340134 -28.302670
120.844276 152.340134 -28.302670
124.722603 113.340118 -72.302681
124.681770 114.340118 -72.302681
124.229836 114.656281 -73.302681
124.229836 115.340118 -73.176506
124.043983 116.340118 -73.302681
124.229836 116.340118 -72.858742
124.603432 115.340118 -72.302681
124.463142 116.340118 -72.302681
120.229836 151.564377 -25.302670
120.229836 151.340134 -25.070675
120.302803 151.340134 -25.302670
120.597542 150.340134 -25.302670
124.639229 109.340118 -71.302681
124.873909 110.340118 -71.302681
125.044899 109.340118 -70.302681
125.229836 110.102020 -70.302681
125.277809 110.340118 -70.302681
125.023720 111.340118 -71.302681
125.117500 112.340118 -71.302681
125.229836 111.340118 -70.822853
120.592537 151.340134 -26.302670
125.438850 111.340118 -70.302681
125.229836 112.340118 -71.048012
125.535469 112.340118 -70.302681
125.229836 108.680756 -69.302681
125.229836 109.340118 -69.806435
125.426430 109.340118 -69.302681
125.662544 110.340118 -69.302681
125.779884 109.340118 -68.302681
126.008339 110.340118 -68.302681
125.818794 111.340118 -69.302681
125.908821 112.340118 -69.302681
126.155586 111.340118 -68.302681
126.229836 112.146851 -68.302681
125.229836 113.340118 -71.135445
125.118660 114.340118 -71.302681
125.574379 113.340118 -70.302681
125.229836 114.340118 -71.048363
120.895912 150.340134 -26.302670
125.534981 114.340118 -70.302681
125.038277 115.340118 -71.302681
124.897285 116.340118 -71.302681
125.229836 115.340118 -70.851830
125.446877 115.340118 -70.302681
125.229836 116.340118 -70.497536
125.304817 116.340118 -70.302681
125.952766 113.340118 -69.302681
125.922981 114.340118 -69.302681
126.229836 113.340118 -68.497856
126.268196 114.340118 -68.302681
125.837044 115.340118 -69.302681
125.700081 116.340118 -69.302681
126.229836 114.896820 -68.302681
126.229836 115.340118 -68.162254
126.058937 116.340118 -68.302681
126.290779 113.340118 -68.302681
122.229836 119.340118 -75.870064
122.229836 120.181702 -75.302681
123.007240 117.340118 -75.302681
122.768715 118.340118 -75.302681
123.229836 117.340118 -74.813164
120.886238 149.340134 -25.302670
123.441383 117.340118 -74.302681
123.229836 118.232605 -74.302681
122.483894 119.340118 -75.302681
122.917305 119.340118 -74.302681
122.612495 120.340118 -74.302681
121.229836 148.144669 -25.302670
123.863441 117.340118 -73.302681
123.631783 118.340118 -73.302681
121.229836 149.340134 -26.488506
124.273689 117.340118 -72.302681
124.229836 117.546387 -72.302681
124.052071 118.340118 -72.302681
121.229836 149.180710 -26.302670
121.465645 148.340134 -26.302670
123.229836 119.340118 -73.562401
123.348061 119.340118 -73.302681
123.229836 119.727478 -73.302681
123.051003 120.340118 -73.302681
123.773262 119.340118 -72.302681
123.229836 120.340118 -72.902077
123.465279 120.340118 -72.302681
121.839485 121.340118 -75.302681
121.229836 122.340118 -75.746315
121.439796 122.340118 -75.302681
122.229836 121.340118 -74.379433
121.890633 122.340118 -74.302681
122.229836 121.416016 -74.302681
120.229836 124.340118 -75.981178
121.229836 122.862152 -75.302681
121.017097 123.340118 -75.302681
120.563850 124.340118 -75.302681
121.229836 123.340118 -74.857689
121.479622 123.340118 -74.302681
121.229836 123.884094 -74.302681
121.040443 124.340118 -74.302681
122.229836 122.340118 -73.496605
122.229836 122.588867 -73.302681
121.933907 123.340118 -73.302681
121.229836 124.340118 -73.865089
121.490425 124.340118 -73.302681
122.229836 123.340118 -72.609596
121.923592 124.340118 -72.302681
122.229836 123.607910 -72.302681
120.886299 151.340134 -27.302670
122.694160 121.340118 -73.302681
122.317146 122.340118 -73.302681
123.229836 121.050873 -72.302681
123.119392 121.340118 -72.302681
122.737648 122.340118 -72.302681
122.347359 123.340118 -72.302681
124.229836 118.340118 -71.849586
124.696205 117.340118 -71.302681
124.459480 118.340118 -71.302681
125.229836 116.759277 -70.302681
125.101051 117.340118 -70.302681
124.856758 118.340118 -70.302681
124.229836 119.141174 -71.302681
124.229836 119.340118 -71.153572
123.869911 120.340118 -71.302681
121.229836 150.185196 -27.302670
124.259285 120.340118 -70.302681
124.569038 119.340118 -70.302681
121.161049 151.340134 -28.302670
125.229836 117.340118 -69.956017
125.493721 117.340118 -69.302681
125.244209 118.340118 -69.302681
121.229836 151.131241 -28.302670
121.462257 150.340134 -28.302670
125.870033 117.340118 -68.302681
125.637794 118.340118 -68.302681
124.958260 119.340118 -69.302681
124.647408 120.340118 -69.302681
125.229836 119.340118 -68.627510
121.461464 149.340134 -27.302670
125.354958 119.340118 -68.302681
125.229836 119.726685 -68.302681
125.054665 120.340118 -68.302681
122.229836 124.340118 -71.505409
123.229836 121.340118 -72.008034
123.525520 121.340118 -71.302681
123.229836 122.109406 -71.302681
123.147743 122.340118 -71.302681
123.931190 121.340118 -70.302681
123.229836 122.340118 -71.107658
123.554604 122.340118 -70.302681
122.747139 123.340118 -71.302681
122.315468 124.340118 -71.302681
123.229836 123.177826 -70.302681
121.735085 148.340134 -27.302670
122.724770 124.340118 -70.302681
124.229836 121.340118 -69.527992
124.229836 121.590637 -69.302681
123.961952 122.340118 -69.302681
124.229836 122.340118 -68.653770
124.319862 121.340118 -69.302681
124.734016 121.340118 -68.302681
124.375526 122.340118 -68.302681
121.729744 149.340134 -28.302670
123.570686 123.340118 -69.302681
123.229836 123.340118 -70.121635
123.229836 124.121735 -69.302681
123.141029 124.340118 -69.302681
124.229836 122.730103 -68.302681
123.996559 123.340118 -68.302681
123.229836 124.340118 -69.102364
123.565956 124.340118 -68.302681
126.097176 109.340118 -67.302681
126.229836 109.879211 -67.302681
126.229836 110.340118 -67.576668
126.229836 108.716736 -66.302681
126.229836 109.340118 -66.886787
126.229836 111.340118 -68.054573
126.229836 116.340118 -67.773903
126.323097 110.340118 -67.302681
126.405098 109.340118 -66.302681
126.635780 110.340118 -66.302681
126.485268 111.340118 -67.302681
126.582649 112.340118 -67.302681
121.981392 148.340134 -28.302670
126.817543 111.340118 -66.302681
126.931160 112.340118 -66.302681
126.731911 109.340118 -65.302681
126.967751 110.340118 -65.302681
127.094856 109.340118 -64.302681
127.229836 109.863831 -64.302681
127.229836 110.340118 -64.598747
127.332100 110.340118 -64.302681
127.229836 111.340118 -65.124977
127.229836 111.783447 -65.302681
127.291664 112.340118 -65.302681
120.229836 147.160385 -21.302668
120.229836 146.340134 -20.591761
120.480171 146.340134 -21.302668
120.513374 147.340134 -22.302668
127.532051 111.340118 -64.302681
120.819557 146.340134 -22.302668
127.668282 112.340118 -64.302681
126.633583 113.340118 -67.302681
126.617958 114.340118 -67.302681
126.993568 113.340118 -66.302681
126.989754 114.340118 -66.302681
126.538338 115.340118 -67.302681
126.408577 116.340118 -67.302681
126.912971 115.340118 -66.302681
126.789131 116.340118 -66.302681
127.229836 113.340118 -65.657524
127.370338 113.340118 -65.302681
127.229836 114.340118 -65.665245
127.378212 114.340118 -65.302681
127.746101 113.340118 -64.302681
127.762917 114.340118 -64.302681
127.306679 115.340118 -65.302681
127.229836 116.047363 -65.302681
127.229836 116.340118 -65.226784
127.706917 115.340118 -64.302681
127.610146 116.340118 -64.302681
127.229836 108.556091 -63.302677
127.229836 109.340118 -63.914127
127.470222 109.340118 -63.302677
127.717812 110.340118 -63.302677
127.848152 109.340118 -62.302677
128.092010 110.340118 -62.302677
127.912392 111.340118 -63.302677
128.040619 112.340118 -63.302677
128.229828 111.065552 -62.302677
128.276733 111.340118 -62.302677
128.229828 112.340118 -62.782734
120.788002 145.340134 -21.302668
128.406616 112.340118 -62.302677
128.229828 109.340118 -61.180485
128.229828 110.340118 -61.908207
128.229828 108.498749 -60.302677
128.443817 110.340118 -61.302677
128.509705 109.340118 -60.302677
121.115517 144.340134 -21.302668
128.787903 110.340118 -60.302677
128.643555 111.340118 -61.302677
128.785980 112.340118 -61.302677
129.011200 111.340118 -60.302677
129.229828 112.340118 -60.124760
128.110809 113.340118 -63.302677
128.134308 114.340118 -63.302677
128.229828 113.340118 -62.975010
128.229828 114.340118 -63.043903
128.481415 113.340118 -62.302677
128.512817 114.340118 -62.302677
128.094696 115.340118 -63.302677
128.012848 116.340118 -63.302677
128.229828 115.340118 -62.947453
128.229828 116.340118 -62.740864
128.480133 115.340118 -62.302677
128.399475 116.340118 -62.302677
128.868317 113.340118 -61.302677
128.903046 114.340118 -61.302677
129.229828 112.988312 -60.302677
129.257111 113.340118 -60.302677
129.300354 114.340118 -60.302677
121.120522 145.340134 -22.302668
121.229836 144.997238 -22.302668
121.229836 144.340134 -21.643717
121.431923 144.340134 -22.302668
128.874847 115.340118 -61.302677
128.793152 116.340118 -61.302677
129.283020 115.340118 -60.302677
129.229828 116.026276 -60.302677
129.229828 116.340118 -60.223377
126.229836 117.310150 -67.302681
126.025703 118.340118 -67.302681
126.229836 118.340118 -66.795235
120.850502 147.340134 -23.302668
125.781776 119.340118 -67.302681
125.229836 120.340118 -67.854362
125.483162 120.340118 -67.302681
126.229836 119.194336 -66.302681
125.924538 120.340118 -66.302681
121.147621 146.340134 -23.302668
126.229836 120.340118 -65.566826
125.229836 121.166016 -67.302681
121.167793 147.340134 -24.302670
124.814980 122.340118 -67.302681
121.229836 147.133072 -24.302670
121.229836 146.340134 -23.548548
121.455544 146.340134 -24.302670
125.621376 121.340118 -66.302681
125.229836 121.340118 -67.173180
125.259254 122.340118 -66.302681
124.229836 123.340118 -67.735680
124.229836 123.789490 -67.302681
124.000526 124.340118 -67.302681
124.229836 124.340118 -66.759895
124.421608 123.340118 -67.302681
124.860909 123.340118 -66.302681
124.425270 124.340118 -66.302681
126.229836 120.808655 -65.302681
126.069466 121.340118 -65.302681
125.719551 122.340118 -65.302681
126.229836 121.340118 -64.953148
126.229836 122.119873 -64.302681
126.154518 122.340118 -64.302681
125.303719 123.340118 -65.302681
121.229836 146.036301 -23.302668
121.229836 145.340134 -22.668741
121.436226 145.340134 -23.302668
124.864174 124.340118 -65.302681
125.756172 123.340118 -64.302681
125.229836 124.340118 -64.487831
121.735054 144.340134 -23.302668
126.229836 122.340118 -64.106956
126.229836 123.239075 -63.302677
125.758278 124.340118 -63.302677
126.229836 124.240295 -62.302677
121.740303 145.340134 -24.302670
126.612801 117.340118 -66.302681
126.417946 118.340118 -66.302681
127.032448 117.340118 -65.302681
126.836708 118.340118 -65.302681
127.229836 117.340118 -64.867455
127.462868 117.340118 -64.302681
127.276558 118.340118 -64.302681
122.014717 144.340134 -24.302670
126.616066 119.340118 -65.302681
122.626839 140.340118 -21.302668
122.229836 141.291092 -21.302668
126.352516 120.340118 -65.302681
127.229836 118.593811 -64.302681
127.062355 119.340118 -64.302681
126.797493 120.340118 -64.302681
126.502388 121.340118 -64.302681
127.880989 117.340118 -63.302677
127.701759 118.340118 -63.302677
128.270355 117.340118 -62.302677
128.229828 117.584869 -62.302677
128.100250 118.340118 -62.302677
122.229836 141.984695 -22.302668
122.229836 141.340134 -21.372049
122.487282 141.340134 -22.302668
127.229836 119.340118 -63.895100
127.491859 119.340118 -63.302677
127.235756 120.340118 -63.302677
127.906776 119.340118 -62.302677
127.664589 120.340118 -62.302677
128.229828 118.340118 -61.963184
128.667267 117.340118 -61.302677
128.493774 118.340118 -61.302677
129.069824 117.340118 -60.302677
128.890228 118.340118 -60.302677
128.299866 119.340118 -61.302677
128.229828 119.650635 -61.302677
128.074280 120.340118 -61.302677
128.229828 120.340118 -60.916447
122.911720 140.340118 -22.302668
122.229836 142.762161 -23.302668
122.229836 142.340134 -22.785425
122.368965 142.340134 -23.302668
128.695496 119.340118 -60.302677
128.470581 120.340118 -60.302677
122.229836 143.554642 -24.302670
122.229836 143.340134 -24.022577
122.296669 143.340134 -24.302670
126.940987 121.340118 -63.302677
122.617622 142.340134 -24.302670
126.584846 122.340118 -63.302677
127.229836 121.340118 -62.656528
127.372566 121.340118 -62.302677
127.229836 121.747650 -62.302677
127.018074 122.340118 -62.302677
126.608620 123.340118 -62.302677
127.792854 121.340118 -61.302677
127.229836 122.340118 -61.780537
127.438911 122.340118 -61.302677
128.229828 121.218781 -60.302677
122.747261 141.340134 -23.302668
127.861305 122.340118 -60.302677
127.229836 122.886993 -61.302677
127.037178 123.340118 -61.302677
126.613686 124.340118 -61.302677
127.229836 123.340118 -60.874653
127.464088 123.340118 -60.302677
127.229836 123.890717 -60.302677
127.053017 124.340118 -60.302677
118.229828 128.340118 -75.871483
118.229828 128.973724 -75.302681
118.036774 129.340118 -75.302681
117.229828 130.340118 -75.845451
117.533630 130.340118 -75.302681
118.229828 129.340118 -74.942085
118.229828 129.954590 -74.302681
118.055969 130.340118 -74.302681
117.229828 131.004578 -75.302681
117.078918 131.340118 -75.302681
116.675537 132.340118 -75.302681
117.229828 131.340118 -75.020943
117.600769 131.340118 -74.302681
117.229828 132.176880 -74.302681
118.229828 130.340118 -73.925529
118.229828 131.030334 -73.302681
118.091949 131.340118 -73.302681
123.229836 140.192566 -23.302668
117.660461 132.340118 -73.302681
117.229828 132.340118 -74.171654
118.229828 131.340118 -73.020363
118.229828 132.053558 -72.302681
118.122131 132.340118 -72.302681
118.229828 132.340118 -72.038338
116.313721 133.340118 -75.302681
116.229828 133.585541 -75.302681
115.999359 134.340118 -75.302681
116.229828 134.340118 -74.795677
122.989815 141.340134 -24.302670
123.229836 140.765915 -24.302670
123.229836 140.340118 -23.534021
123.397255 140.340118 -24.302670
116.787903 133.340118 -74.302681
116.450989 134.340118 -74.302681
115.715942 135.340118 -75.302681
115.229828 136.340118 -75.761543
115.454620 136.340118 -75.302681
116.229828 135.064789 -74.302681
116.229828 135.340118 -74.121651
115.897644 136.340118 -74.302681
117.242615 133.340118 -73.302681
121.229836 143.980545 -21.302668
121.229836 143.340134 -20.607477
121.464363 143.340134 -21.302668
116.890961 134.340118 -73.302681
117.721710 133.340118 -72.302681
117.229828 134.340118 -72.558388
117.344421 134.340118 -72.302681
116.307343 136.340118 -73.302681
121.827553 142.340134 -21.302668
116.579865 135.340118 -73.302681
117.229828 134.674530 -72.302681
117.009827 135.340118 -72.302681
116.718933 136.340118 -72.302681
115.229828 137.253326 -75.302681
121.767311 143.340134 -22.302668
114.992340 138.340118 -75.302681
115.641632 137.340118 -74.302681
115.229828 138.340118 -74.742928
115.404358 138.340118 -74.302681
114.771576 139.340118 -75.302681
114.562927 140.340118 -75.302681
115.229828 139.108978 -74.302681
115.229828 139.340118 -74.153511
114.955383 140.340118 -74.302681
116.229828 136.642914 -73.302681
116.052185 137.340118 -73.302681
115.811676 138.340118 -73.302681
116.229828 137.340118 -72.865562
116.229828 138.231049 -72.302681
122.109169 142.340134 -22.302668
116.454834 137.340118 -72.302681
115.574524 139.340118 -73.302681
115.229828 140.340118 -73.568687
115.340210 140.340118 -73.302681
115.973480 139.340118 -72.302681
115.738312 140.340118 -72.302681
118.229828 133.198761 -71.302681
117.814301 134.340118 -71.302681
118.232918 134.340118 -70.302681
117.229828 135.340118 -71.776985
117.456055 135.340118 -71.302681
117.229828 136.007416 -71.302681
117.141052 136.340118 -71.302681
117.892365 135.340118 -70.302681
117.229828 136.340118 -71.101479
117.564789 136.340118 -70.302681
118.293068 135.340118 -69.302681
117.974792 136.340118 -69.302681
118.229828 136.340118 -68.688072
122.039040 143.340134 -23.302668
116.860443 137.340118 -71.302681
116.605713 138.340118 -71.302681
117.266418 137.340118 -70.302681
117.010834 138.340118 -70.302681
116.229828 139.340118 -71.644951
116.229828 139.923828 -71.302681
116.140961 140.340118 -71.302681
116.229828 140.340118 -71.079247
116.373779 139.340118 -71.302681
116.776520 139.340118 -70.302681
116.545624 140.340118 -70.302681
117.685669 137.340118 -69.302681
117.229828 138.340118 -69.732262
117.414124 138.340118 -69.302681
118.229828 136.855804 -68.302681
118.089600 137.340118 -68.302681
117.821747 138.340118 -68.302681
117.229828 139.089661 -69.302681
117.229828 139.340118 -69.157143
116.938202 140.340118 -69.302681
117.563904 139.340118 -68.302681
117.229828 140.340118 -68.550301
117.317688 140.340118 -68.302681
118.229828 137.340118 -67.918098
118.229828 138.242798 -67.302681
122.229836 145.539627 -26.302670
122.229836 145.340134 -26.076214
122.283669 145.340134 -26.302670
122.528725 144.340134 -26.302670
122.229836 144.536728 -25.302670
117.955597 139.340118 -67.302681
117.705292 140.340118 -67.302681
118.229828 139.340118 -66.594124
118.229828 139.723877 -66.302681
118.084229 140.340118 -66.302681
118.229828 140.340118 -65.893257
120.229836 125.078102 -75.302681
120.100685 125.340126 -75.302681
119.229836 126.340126 -75.939323
119.585182 126.340126 -75.302681
120.229836 125.340126 -75.043678
120.229836 126.065254 -74.302681
120.096840 126.340126 -74.302681
120.582985 125.340126 -74.302681
119.229836 127.030739 -75.302681
119.063972 127.340126 -75.302681
118.545876 128.340118 -75.302681
119.229836 127.340126 -75.008369
119.591774 127.340126 -74.302681
119.229836 128.036560 -74.302681
119.082832 128.340118 -74.302681
120.229836 126.340126 -74.014351
121.229836 124.934059 -73.302681
121.035683 125.340126 -73.302681
120.557137 126.340126 -73.302681
121.229836 125.340126 -72.871758
121.463356 125.340126 -72.302681
121.229836 125.830452 -72.302681
120.996956 126.340126 -72.302681
120.229836 127.016792 -73.302681
120.075142 127.340126 -73.302681
119.229836 128.340118 -74.000603
119.576637 128.340118 -73.302681
120.229836 127.340126 -72.965813
120.229836 127.933632 -72.302681
120.040627 128.340118 -72.302681
120.517555 127.340126 -72.302681
118.550911 129.340118 -74.302681
119.229836 129.020477 -73.302681
119.049934 129.340118 -73.302681
118.537392 130.340118 -73.302681
119.229836 129.340118 -72.947792
119.525002 129.340118 -72.302681
119.229836 129.895966 -72.302681
119.018471 130.340118 -72.302681
118.551003 131.340118 -72.302681
122.229836 124.549080 -71.302681
121.882973 125.340126 -71.302681
121.229836 126.340126 -71.728172
121.419014 126.340126 -71.302681
122.229836 125.340126 -70.446663
121.849098 126.340126 -70.302681
122.229836 125.460548 -70.302681
120.229836 128.340118 -71.849449
121.229836 126.753212 -71.302681
120.947670 127.340126 -71.302681
120.466988 128.340118 -71.302681
121.229836 127.340126 -70.649361
121.372963 127.340126 -70.302681
120.896645 128.340118 -70.302681
121.229836 127.620827 -70.302681
122.258797 126.340126 -69.302681
122.229836 144.340134 -25.134502
121.811348 127.340126 -69.302681
121.229836 128.340118 -69.521217
121.329720 128.340118 -69.302681
122.229836 127.332802 -68.302681
122.495338 146.340134 -28.302670
122.229836 147.340134 -28.272274
122.229836 146.503708 -27.302670
121.772621 128.340118 -68.302681
122.229836 146.340134 -27.145458
122.519478 145.340134 -27.302670
122.693825 125.340126 -69.302681
123.229836 125.104591 -68.302681
123.118935 125.340126 -68.302681
122.674660 126.340126 -68.302681
122.761147 144.340134 -27.302670
120.229836 128.843323 -71.302681
119.982002 129.340118 -71.302681
119.229836 130.340118 -71.830574
119.486824 130.340118 -71.302681
120.229836 129.340118 -70.732506
120.229836 129.724548 -70.302681
119.947426 130.340118 -70.302681
120.415321 129.340118 -70.302681
119.229836 130.900330 -71.302681
119.019356 131.340118 -71.302681
118.572792 132.340118 -71.302681
119.229836 131.340118 -70.865517
119.480049 131.340118 -70.302681
119.229836 131.868225 -70.302681
119.032600 132.340118 -70.302681
120.229836 130.340118 -69.655525
121.229836 128.567169 -69.302681
120.860420 129.340118 -69.302681
120.390114 130.340118 -69.302681
121.229836 129.340118 -68.478905
120.840767 130.340118 -68.302681
121.229836 129.488617 -68.302681
122.742775 145.340134 -28.302670
120.229836 130.691498 -69.302681
119.941322 131.340118 -69.302681
119.229836 132.340118 -69.848869
119.489998 132.340118 -69.302681
120.229836 131.340118 -68.668449
