95.502625 42.288818 11.568024
95.609802 42.288818 10.891083
95.869507 41.288818 10.891083
95.449036 42.288818 11.891083
95.934875 40.288818 11.891083
96.149536 39.288818 11.891083
96.101379 40.288818 10.891083
96.313293 39.288818 10.891083
95.743286 42.288818 9.891083
95.998352 41.288818 9.891083
95.848572 42.288818 8.891083
96.102295 41.288818 8.891083
96.229065 40.288818 9.891083
96.440430 39.288818 9.891083
96.331238 40.288818 8.891083
96.502625 39.288818 9.310852
96.538940 39.288818 8.891083
89.502625 58.741272 7.891083
89.657288 58.288818 7.891083
89.994629 57.288818 7.891083
89.540710 58.288818 6.891083
89.897766 57.288818 6.891083
90.359009 56.288818 7.891083
90.502625 55.946411 7.891083
90.770081 55.288818 7.891083
90.296509 56.288818 6.891083
90.502625 55.838928 6.891083
90.746582 55.288818 6.891083
89.502625 58.288818 6.510773
89.831360 57.288818 5.891083
89.502625 58.130310 5.891083
89.502625 57.953064 4.891083
89.789551 57.288818 4.891083
90.269348 56.288818 5.891083
90.502625 55.816528 5.891083
90.756287 55.288818 5.891083
90.276428 56.288818 4.891083
90.805176 55.288818 4.891083
90.502625 55.869324 4.891083
89.502625 57.872620 3.891083
89.784790 57.288818 3.891083
89.836792 57.288818 2.891083
89.502625 57.899902 2.891083
90.328247 56.288818 3.891083
90.899353 55.288818 3.891083
90.502625 55.995972 3.891083
90.502625 56.182068 2.891083
91.030823 55.288818 2.891083
89.947937 57.288818 1.891083
89.502625 58.029846 1.891083
90.119690 57.288818 0.891083
89.502625 58.246155 0.891083
90.502625 56.288818 2.366760
90.579834 56.288818 1.891083
91.185486 55.288818 1.891083
90.762939 56.288818 0.891083
90.502625 56.692444 0.891083
91.359070 55.288818 0.891083
89.852844 59.288818 -3.108917
89.502625 59.821777 -3.108917
89.502625 59.355774 -2.108917
89.502625 59.288818 -1.978302
89.502625 58.540894 -0.108917
89.502625 58.288818 0.707123
89.672974 58.288818 -0.108917
90.344727 57.288818 -0.108917
89.924438 58.288818 -1.108917
89.502625 58.915588 -1.108917
90.502625 57.288818 -0.738647
90.590942 57.288818 -1.108917
91.737122 55.288818 -1.108917
91.502625 55.746094 -1.108917
91.502625 55.364502 -0.108917
91.502625 55.288818 0.085846
90.976074 56.288818 -0.108917
90.502625 57.040161 -0.108917
91.199158 56.288818 -1.108917
90.205322 58.288818 -2.108917
90.847351 57.288818 -2.108917
90.502625 57.842834 -2.108917
90.502625 58.289001 -3.108917
91.126282 57.288818 -3.108917
91.956482 55.288818 -2.108917
91.502625 56.164246 -2.108917
91.502625 56.631836 -3.108917
91.502625 56.288818 -2.381897
91.686218 56.288818 -3.108917
92.200562 55.288818 -3.108917
90.191711 59.288818 -4.108917
89.502625 60.272400 -4.108917
89.502625 60.766235 -5.108917
89.502625 60.288818 -4.143372
89.857056 60.288818 -5.108917
90.502625 59.366089 -5.108917
90.003479 61.288818 -7.108917
89.502625 61.942505 -7.108917
89.502625 61.327698 -6.108917
89.502625 61.288818 -6.048462
90.274048 60.288818 -6.108917
90.944580 59.288818 -6.108917
90.502625 59.976135 -6.108917
90.502625 60.595947 -7.108917
90.502625 60.288818 -6.595978
90.718506 60.288818 -7.108917
91.359192 59.288818 -7.108917
91.502625 57.723022 -5.108917
91.502625 57.288818 -4.363037
91.744202 57.288818 -5.108917
90.824707 58.288818 -4.108917
90.502625 58.793762 -4.108917
91.502625 57.146729 -4.108917
91.173523 58.288818 -5.108917
91.966553 56.288818 -4.108917
92.502625 55.288818 -4.231415
92.278931 56.288818 -5.108917
92.502625 55.856262 -5.108917
92.769775 55.288818 -5.108917
92.093140 57.288818 -6.108917
91.502625 58.288818 -6.016174
91.927307 58.288818 -7.108917
91.502625 59.037903 -7.108917
92.502625 57.288818 -7.200806
92.502625 56.501160 -6.108917
92.502625 56.288818 -5.802277
92.614136 56.288818 -6.108917
93.109314 55.288818 -6.108917
92.996765 56.288818 -7.108917
92.502625 57.222717 -7.108917
93.502625 55.288818 -7.181793
91.502625 53.691406 7.891083
91.686157 53.288818 7.891083
91.725220 53.288818 6.891083
91.502625 53.752563 6.891083
91.230225 54.288818 7.891083
91.242676 54.288818 6.891083
92.157654 52.288818 7.891083
92.617737 51.288818 7.891083
92.502625 51.557190 7.891083
92.221680 52.288818 6.891083
92.699585 51.288818 6.891083
92.502625 51.727478 6.891083
91.796692 53.288818 5.891083
91.502625 53.872437 5.891083
91.889709 53.288818 4.891083
91.502625 54.025208 4.891083
91.288269 54.288818 5.891083
91.360107 54.288818 4.891083
92.309265 52.288818 5.891083
92.799255 51.288818 5.891083
92.502625 51.920532 5.891083
92.502625 52.115173 4.891083
92.898682 51.288818 4.891083
93.588379 49.288818 6.891083
93.502625 49.505920 6.891083
93.502625 49.293701 7.891083
93.502625 49.288818 7.910461
93.895569 48.288818 7.891083
94.278564 47.288818 7.891083
93.987427 48.288818 6.891083
94.373901 47.288818 6.891083
93.671326 49.288818 5.891083
93.502625 49.718506 5.891083
93.502625 49.921021 4.891083
93.750610 49.288818 4.891083
94.065918 48.288818 5.891083
94.502625 47.141663 5.891083
94.141235 48.288818 4.891083
94.502625 47.288818 5.159241
94.518860 47.288818 4.891083
93.076965 50.288818 7.891083
93.159790 50.288818 6.891083
93.254272 50.288818 5.891083
93.343811 50.288818 4.891083
92.000488 53.288818 3.891083
91.502625 54.222168 3.891083
91.502625 54.288818 3.611694
92.134033 53.288818 2.891083
91.605042 54.288818 2.891083
92.502625 52.288818 3.989685
92.998718 51.288818 3.891083
92.630615 52.288818 2.891083
92.502625 52.539978 2.891083
93.105225 51.288818 2.891083
91.756042 54.288818 1.891083
91.502625 54.730957 1.891083
92.279480 53.288818 1.891083
91.915649 54.288818 0.891083
91.502625 55.026245 0.891083
92.502625 53.121582 0.891083
92.759827 52.288818 1.891083
92.502625 52.813660 1.891083
93.218689 51.288818 1.891083
92.900269 52.288818 0.891083
93.345886 51.288818 0.891083
93.831177 49.288818 3.891083
93.502625 50.109558 3.891083
93.931641 49.288818 2.891083
93.502625 50.288818 3.063110
94.230103 48.288818 3.891083
94.597168 47.288818 3.891083
94.502625 47.577209 3.891083
94.341736 48.288818 2.891083
94.702820 47.288818 2.891083
94.502625 47.883972 2.891083
93.632813 50.288818 1.891083
93.502625 50.588562 1.891083
94.059387 49.288818 1.891083
93.759155 50.288818 0.891083
93.502625 50.889893 0.891083
94.189270 49.288818 0.891083
94.502625 48.288818 1.687500
94.829407 47.288818 1.891083
94.502625 48.220154 1.891083
94.502625 48.516052 0.891083
94.594543 48.288818 0.891083
94.942749 47.288818 0.891083
94.647156 46.288818 7.891083
94.502625 46.662903 7.891083
94.997620 45.288818 7.891083
94.741516 46.288818 6.891083
94.502625 46.922485 6.891083
95.085876 45.288818 6.891083
95.646301 43.288818 7.891083
95.502625 43.763367 7.891083
95.726990 43.288818 6.891083
95.502625 44.019775 6.891083
95.330383 44.288818 7.891083
95.412476 44.288818 6.891083
94.820435 46.288818 5.891083
95.157166 45.288818 5.891083
94.884949 46.288818 4.891083
95.220337 45.288818 4.891083
95.795776 43.288818 5.891083
95.502625 44.213623 5.891083
95.502625 44.288818 5.470245
95.851929 43.288818 4.891083
95.536194 44.288818 4.891083
95.930359 42.288818 7.891083
96.186890 41.288818 7.891083
96.003662 42.288818 6.891083
96.257080 41.288818 6.891083
96.417542 40.288818 7.891083
96.623413 39.288818 7.891083
96.502625 39.910400 7.891083
96.502625 40.228516 6.891083
96.698181 39.288818 6.891083
96.075867 42.288818 5.891083
96.326050 41.288818 5.891083
96.133728 42.288818 4.891083
96.384033 41.288818 4.891083
96.502625 40.495850 5.891083
96.502625 40.288818 6.648621
96.551514 40.288818 5.891083
96.758118 39.288818 5.891083
96.608398 40.288818 4.891083
96.502625 40.745605 4.891083
96.809021 39.288818 4.891083
94.951416 46.288818 3.891083
95.282532 45.288818 3.891083
95.044189 46.288818 2.891083
95.360962 45.288818 2.891083
95.596436 44.288818 3.891083
95.502625 44.580627 3.891083
95.905212 43.288818 3.891083
95.663879 44.288818 2.891083
95.502625 44.815063 2.891083
95.961243 43.288818 2.891083
95.502625 45.513489 0.891083
95.502625 45.288818 1.515411
95.566589 45.288818 0.891083
95.160828 46.288818 1.891083
95.502625 45.146362 1.891083
95.268616 46.288818 0.891083
95.742737 44.288818 1.891083
96.017700 43.288818 1.891083
95.829041 44.288818 0.891083
96.081604 43.288818 0.891083
96.181519 42.288818 3.891083
96.429199 41.288818 3.891083
96.231506 42.288818 2.891083
96.502625 41.147888 2.891083
96.658936 40.288818 3.891083
96.502625 40.953125 3.891083
96.860474 39.288818 3.891083
96.703491 40.288818 2.891083
96.904663 39.288818 2.891083
96.278198 42.288818 1.891083
96.502625 41.288818 2.138519
96.513245 41.288818 1.891083
96.322998 42.288818 0.891083
96.549255 41.288818 0.891083
96.502625 41.506531 0.891083
96.741638 40.288818 1.891083
96.933044 39.288818 1.891083
96.767456 40.288818 0.891083
96.941711 39.288818 0.891083
93.502625 51.598755 -1.108917
93.502625 51.288818 -0.252380
93.625122 51.288818 -1.108917
93.784912 51.288818 -2.108917
93.502625 51.986267 -2.108917
93.981567 51.288818 -3.108917
93.502625 52.288818 -2.791626
93.566223 52.288818 -3.108917
92.084106 54.288818 -0.108917
92.502625 53.288818 0.341736
92.576904 53.288818 -0.108917
92.263611 54.288818 -1.108917
92.743286 53.288818 -1.108917
92.502625 53.815674 -1.108917
93.046631 52.288818 -0.108917
93.200256 52.288818 -1.108917
92.502625 54.288818 -2.284515
92.933655 53.288818 -2.108917
92.502625 54.209656 -2.108917
92.502625 54.656189 -3.108917
92.689941 54.288818 -3.108917
93.148254 53.288818 -3.108917
93.370422 52.288818 -2.108917
93.891846 50.288818 -0.108917
93.502625 51.233398 -0.108917
94.310852 49.288818 -0.108917
94.032837 50.288818 -1.108917
94.502625 49.112488 -1.108917
94.698425 48.288818 -0.108917
94.502625 48.791016 -0.108917
95.042603 47.288818 -0.108917
94.815369 48.288818 -1.108917
95.160828 47.288818 -1.108917
94.191101 50.288818 -2.108917
94.502625 49.514587 -2.108917
94.502625 49.288818 -1.594757
94.584839 49.288818 -2.108917
94.384155 50.288818 -3.108917
94.771973 49.288818 -3.108917
94.502625 50.001282 -3.108917
94.961182 48.288818 -2.108917
95.304260 47.288818 -2.108917
95.142761 48.288818 -3.108917
95.502625 47.165833 -3.108917
93.502625 53.731873 -5.108917
93.502625 53.288818 -4.497589
93.682434 53.288818 -5.108917
93.808594 52.288818 -4.108917
93.502625 53.001892 -4.108917
94.235291 51.288818 -4.108917
94.112000 52.288818 -5.108917
94.502625 51.392395 -5.108917
94.026306 53.288818 -6.108917
93.502625 54.288818 -5.914490
93.959595 54.288818 -7.108917
93.502625 55.228638 -7.108917
94.502625 53.288818 -7.267853
94.502625 52.288818 -6.182220
94.901306 51.288818 -6.108917
94.502625 52.223450 -6.108917
94.502625 53.138916 -7.108917
94.895813 52.288818 -7.108917
95.320190 51.288818 -7.108917
92.953979 54.288818 -4.108917
92.502625 55.207092 -4.108917
93.391235 53.288818 -4.108917
93.251587 54.288818 -5.108917
94.502625 50.598694 -4.108917
94.502625 50.288818 -3.652588
94.627502 50.288818 -4.108917
95.007202 49.288818 -4.108917
94.927612 50.288818 -5.108917
95.285034 49.288818 -5.108917
95.502625 47.818604 -4.108917
95.502625 47.288818 -3.332672
95.648621 47.288818 -4.108917
95.502625 48.608887 -5.108917
95.502625 48.288818 -4.733917
95.600098 48.288818 -5.108917
95.860596 47.288818 -5.108917
95.353882 48.288818 -4.108917
95.502625 49.630615 -6.108917
95.502625 49.288818 -5.798645
95.613708 49.288818 -6.108917
95.502625 50.788208 -7.108917
95.502625 50.288818 -6.671417
95.682678 50.288818 -7.108917
95.999573 49.288818 -7.108917
95.279663 50.288818 -6.108917
95.901978 48.288818 -6.108917
96.133606 47.288818 -6.108917
96.259705 48.288818 -7.108917
96.458984 47.288818 -7.108917
95.666809 45.288818 -0.108917
95.502625 45.853821 -0.108917
95.776001 45.288818 -1.108917
95.502625 46.226807 -1.108917
95.368347 46.288818 -0.108917
95.502625 46.288818 -1.259521
95.920227 44.288818 -0.108917
96.157471 43.288818 -0.108917
96.022522 44.288818 -1.108917
96.249084 43.288818 -1.108917
95.502625 46.651001 -2.108917
95.619202 46.288818 -2.108917
95.890808 45.288818 -2.108917
95.758789 46.288818 -3.108917
96.003479 45.288818 -3.108917
96.125916 44.288818 -2.108917
96.343689 43.288818 -2.108917
96.220642 44.288818 -3.108917
96.427612 43.288818 -3.108917
96.375000 42.288818 -0.108917
96.580566 41.288818 -0.108917
96.502625 41.684631 -0.108917
96.443115 42.288818 -1.108917
96.620667 41.288818 -1.108917
96.502625 41.973511 -1.108917
96.777710 40.288818 -0.108917
96.928711 39.288818 -0.108917
96.787476 40.288818 -1.108917
96.910706 39.288818 -1.108917
96.502625 42.288818 -1.911041
96.668396 41.288818 -2.108917
96.592957 42.288818 -3.108917
96.502625 42.826416 -3.108917
96.717773 41.288818 -3.108917
96.803345 40.288818 -2.108917
96.903503 39.288818 -2.108917
96.824219 40.288818 -3.108917
96.905334 39.288818 -3.108917
95.903748 46.288818 -4.108917
96.122742 45.288818 -4.108917
96.084900 46.288818 -5.108917
96.280212 45.288818 -5.108917
96.322266 44.288818 -4.108917
96.502625 43.288818 -4.009857
96.513245 43.288818 -4.108917
96.454529 44.288818 -5.108917
96.622925 43.288818 -5.108917
96.502625 44.030823 -5.108917
96.327026 46.288818 -6.108917
96.502625 45.207275 -6.108917
96.502625 47.005371 -7.108917
96.502625 46.288818 -6.711823
96.621277 46.288818 -7.108917
96.754333 45.288818 -7.108917
96.502625 44.288818 -5.420044
96.639343 44.288818 -6.108917
96.767334 43.288818 -6.108917
96.863464 44.288818 -7.108917
96.943481 43.288818 -7.108917
96.666504 42.288818 -4.108917
96.773193 41.288818 -4.108917
96.756836 42.288818 -5.108917
96.842651 41.288818 -5.108917
96.855835 40.288818 -4.108917
96.913818 39.288818 -4.108917
96.896606 40.288818 -5.108917
96.924377 39.288818 -5.108917
96.864929 42.288818 -6.108917
96.924194 41.288818 -6.108917
96.999207 42.288818 -7.108917
97.042419 41.288818 -7.108917
96.951782 40.288818 -6.108917
96.959351 39.288818 -6.108917
97.071777 40.288818 -7.108917
97.096436 39.288818 -7.108917
89.502625 38.288818 31.974792
90.085388 38.288818 30.891083
89.502625 37.589661 31.891083
90.039368 37.288818 30.891083
89.484680 37.288818 31.891083
89.428955 36.288818 31.891083
89.992432 36.288818 30.891083
89.502625 35.288818 31.683533
89.947083 35.288818 30.891083
90.502625 38.288818 30.115570
90.627930 38.288818 29.891083
90.502625 37.288818 30.054077
91.147888 38.288818 28.891083
91.122559 37.288818 28.891083
90.502625 36.288818 29.971558
90.502625 35.288818 29.899139
91.073547 36.288818 28.891083
91.031128 35.288818 28.891083
89.502625 34.288818 31.591309
89.900513 34.288818 30.891083
89.502625 33.288818 31.500854
89.850769 33.288818 30.891083
89.502625 32.288818 31.399567
89.790161 32.288818 30.891083
89.502625 31.288818 31.244537
89.703613 31.288818 30.891083
90.472107 34.288818 29.891083
90.429077 33.288818 29.891083
91.000793 34.288818 28.891083
90.959839 33.288818 28.891083
90.374329 32.288818 29.891083
90.298401 31.288818 29.891083
90.502625 32.288818 29.675842
90.915161 32.288818 28.891083
90.502625 31.288818 29.555786
90.859924 31.288818 28.891083
91.502625 38.288818 28.150604
91.631042 38.288818 27.891083
91.502625 37.288818 28.103333
91.607788 37.288818 27.891083
92.094116 38.288818 26.891083
92.086426 37.288818 26.891083
91.502625 36.288818 28.014648
92.063782 36.288818 26.891083
92.032898 35.288818 26.891083
91.502625 35.288818 27.945343
92.502625 39.044373 25.891083
92.502625 38.288818 25.936249
92.502625 37.288818 25.969116
92.918457 38.288818 24.891083
92.946472 37.288818 24.891083
92.502625 36.288818 25.958221
92.502625 35.288818 25.902496
92.960571 36.288818 24.891083
92.951782 35.288818 24.891083
92.003784 34.288818 26.891083
91.502625 34.288818 27.900574
91.502625 34.134338 27.891083
91.974426 33.288818 26.891083
91.471863 33.288818 27.891083
91.430969 32.288818 27.891083
91.938660 32.288818 26.891083
91.502625 31.288818 27.671936
91.900940 31.288818 26.891083
91.388672 31.288818 27.891083
92.478882 34.288818 25.891083
92.459595 33.288818 25.891083
92.937256 34.288818 24.891083
92.928772 33.288818 24.891083
92.432251 32.288818 25.891083
92.403320 31.288818 25.891083
92.907471 32.288818 24.891083
92.502625 31.288818 25.699554
92.884155 31.288818 24.891083
89.502625 30.288818 31.046387
90.190125 30.288818 29.891083
89.502625 29.523010 30.891083
90.076050 29.288818 29.891083
89.477661 29.288818 30.891083
90.502625 30.288818 29.377167
90.769043 30.288818 28.891083
90.502625 29.288818 29.188538
90.666199 29.288818 28.891083
89.502625 28.288818 30.641602
89.963806 28.288818 29.891083
89.502625 27.288818 30.440125
89.852295 27.288818 29.891083
90.502625 28.288818 29.016754
90.502625 27.573242 28.891083
90.478271 27.288818 28.891083
89.502625 26.288818 30.287476
89.757935 26.288818 29.891083
89.502625 25.288818 30.167877
89.681091 25.288818 29.891083
90.386108 26.288818 28.891083
90.306641 25.288818 28.891083
89.502625 24.288818 30.031006
90.222046 24.288818 28.891083
89.502625 23.499817 29.891083
90.103638 23.288818 28.891083
89.478333 23.288818 29.891083
91.502625 30.288818 27.561005
91.856567 30.288818 26.891083
91.502625 29.288818 27.419861
91.789124 29.288818 26.891083
91.323669 30.288818 27.891083
91.239380 29.288818 27.891083
91.502625 28.288818 27.276428
91.711975 28.288818 26.891083
91.502625 27.288818 27.137177
91.638428 27.288818 26.891083
91.155945 28.288818 27.891083
91.073242 27.288818 27.891083
92.378296 30.288818 25.891083
92.327026 29.288818 25.891083
92.502625 30.288818 25.655396
92.867065 30.288818 24.891083
92.502625 29.288818 25.562195
92.825500 29.288818 24.891083
92.256775 28.288818 25.891083
92.188965 27.288818 25.891083
92.502625 28.288818 25.432220
92.762207 28.288818 24.891083
92.502625 27.288818 25.301666
92.697144 27.288818 24.891083
91.502625 26.288818 26.983063
90.502625 26.288818 28.689484
90.986267 26.288818 27.891083
90.502625 25.288818 28.557465
90.908264 25.288818 27.891083
91.502625 25.686279 26.891083
91.470825 25.288818 26.891083
90.502625 24.288818 28.415558
90.824890 24.288818 27.891083
90.502625 23.288818 28.219971
90.707703 23.288818 27.891083
91.391174 24.288818 26.891083
91.281433 23.288818 26.891083
92.104248 26.288818 25.891083
92.010864 25.288818 25.891083
92.502625 26.288818 25.129852
92.613159 26.288818 24.891083
92.502625 25.288818 24.937073
91.502625 24.288818 26.680115
91.924316 24.288818 25.891083
91.502625 23.288818 26.476959
91.815063 23.288818 25.891083
92.502625 24.976379 24.891083
92.450500 24.288818 24.891083
92.354004 23.288818 24.891083
89.502625 22.288818 29.652374
89.962158 22.288818 28.891083
89.502625 21.288818 29.423645
89.816650 21.288818 28.891083
89.502625 20.288818 29.179047
89.669434 20.288818 28.891083
89.502625 19.288818 28.940094
90.502625 22.288818 28.003296
90.502625 21.766418 27.891083
90.441589 21.288818 27.891083
91.156067 22.288818 26.891083
91.032837 21.288818 26.891083
90.300476 20.288818 27.891083
90.154541 19.288818 27.891083
90.502625 20.288818 27.576263
90.903687 20.288818 26.891083
90.502625 19.288818 27.349701
90.771667 19.288818 26.891083
91.502625 22.288818 26.247803
91.690247 22.288818 25.891083
91.502625 21.288818 26.036255
92.228638 22.288818 24.891083
92.120728 21.288818 24.891083
91.502625 20.556885 25.891083
92.028076 20.288818 24.891083
91.474060 20.288818 25.891083
91.502625 19.288818 25.654724
91.924072 19.288818 24.891083
91.363770 19.288818 25.891083
89.502625 19.044128 28.891083
89.414001 18.288818 28.891083
90.025269 18.288818 27.891083
89.502625 17.288818 28.554321
89.912842 17.288818 27.891083
90.502625 18.288818 27.139191
90.647522 18.288818 26.891083
90.502625 17.288818 26.942841
89.502625 16.288818 28.363953
89.794983 16.288818 27.891083
89.502625 15.288818 28.172333
89.680054 15.288818 27.891083
90.502625 17.019104 26.891083
90.411987 16.288818 26.891083
90.297424 15.288818 26.891083
91.502625 18.288818 25.457825
91.811523 18.288818 24.891083
91.502625 17.288818 25.265930
91.705811 17.288818 24.891083
91.248657 18.288818 25.891083
91.136169 17.288818 25.891083
91.502625 16.288818 25.066376
91.017700 16.288818 25.891083
90.502625 15.288818 26.545502
90.902527 15.288818 25.891083
91.488098 15.288818 24.891083
89.502625 14.288818 28.015167
90.201843 14.288818 26.891083
89.494751 13.288818 27.891083
90.111389 13.288818 26.891083
89.417236 12.288818 27.891083
90.034485 12.288818 26.891083
89.502625 11.288818 27.651550
89.963684 11.288818 26.891083
90.502625 14.288818 26.386505
90.806091 14.288818 25.891083
90.502625 13.288818 26.239746
90.716797 13.288818 25.891083
91.394775 14.288818 24.891083
91.307800 13.288818 24.891083
90.502625 12.288818 26.117523
90.640381 12.288818 25.891083
90.502625 11.288818 26.002228
91.226746 12.288818 24.891083
91.151306 11.288818 24.891083
89.502625 10.288818 27.519867
89.875427 10.288818 26.891083
89.502625 9.288818 27.368561
89.780945 9.288818 26.891083
89.502625 8.288818 27.217377
89.691589 8.288818 26.891083
89.502625 7.288818 27.074982
89.608643 7.288818 26.891083
90.485718 10.288818 25.891083
90.391174 9.288818 25.891083
91.073608 10.288818 24.891083
90.988342 9.288818 24.891083
90.301758 8.288818 25.891083
90.220520 7.288818 25.891083
90.502625 8.288818 25.578461
90.902466 8.288818 24.891083
90.502625 7.288818 25.450989
90.824158 7.288818 24.891083
89.502625 6.127014 26.891083
90.135681 6.288818 25.891083
90.042725 5.288818 25.891083
89.418213 5.288818 26.891083
90.502625 6.288818 25.318695
90.743774 6.288818 24.891083
90.502625 5.288818 25.168488
90.656494 5.288818 24.891083
89.502625 4.288818 26.596558
89.950867 4.288818 25.891083
89.502625 3.288818 26.442139
89.850342 3.288818 25.891083
90.502625 4.288818 25.006531
90.502625 3.723877 24.891083
90.453796 3.288818 24.891083
89.502625 2.288818 26.259247
89.731506 2.288818 25.891083
89.502625 1.288818 26.090332
89.625732 1.288818 25.891083
90.320068 2.288818 24.891083
90.209106 1.288818 24.891083
89.502625 0.288818 25.916748
90.096252 0.288818 24.891083
89.502625 0.175537 25.891083
89.502625 -0.711182 25.709351
89.957947 -0.711182 24.891083
89.502625 -1.711182 25.493835
89.822571 -1.711182 24.891083
89.502625 -2.711182 25.198273
89.657166 -2.711182 24.891083
89.468750 -3.711182 24.891083
93.502625 38.288818 23.252991
93.619690 38.288818 22.891083
93.502625 37.288818 23.396240
93.676147 37.288818 22.891083
93.502625 36.288818 23.495056
93.721680 36.288818 22.891083
93.502625 35.288818 23.536713
93.748474 35.288818 22.891083
93.953247 38.288818 21.891083
94.026184 37.288818 21.891083
94.281555 38.288818 20.891083
94.369934 37.288818 20.891083
94.088867 36.288818 21.891083
94.134644 35.288818 21.891083
94.446045 36.288818 20.891083
94.502625 35.288818 20.896149
93.279541 38.288818 23.891083
93.318726 37.288818 23.891083
93.347778 36.288818 23.891083
93.357300 35.288818 23.891083
93.502625 34.288818 23.556244
93.763123 34.288818 22.891083
93.502625 33.288818 23.566864
93.769043 33.288818 22.891083
93.502625 32.288818 23.551270
93.765808 32.288818 22.891083
93.502625 31.288818 23.509949
93.749451 31.288818 22.891083
94.159973 34.288818 21.891083
94.168884 33.288818 21.891083
94.502625 34.288818 20.987793
94.502625 33.288818 21.023102
94.165100 32.288818 21.891083
94.145874 31.288818 21.891083
94.502625 32.288818 21.017120
94.502625 31.288818 20.958984
93.360229 34.288818 23.891083
93.363403 33.288818 23.891083
93.354858 32.288818 23.891083
93.335938 31.288818 23.891083
94.502625 38.914612 19.891083
94.502625 38.288818 20.146271
94.581726 38.288818 19.891083
94.502625 37.288818 20.457916
94.684326 37.288818 19.891083
94.849548 38.288818 18.891083
94.965454 37.288818 18.891083
94.774353 36.288818 19.891083
94.844849 35.288818 19.891083
95.068970 36.288818 18.891083
95.151550 35.288818 18.891083
95.090088 38.288818 17.891083
95.214966 37.288818 17.891083
95.308044 38.288818 16.891083
95.443787 37.288818 16.891083
95.502625 36.826416 16.891083
95.502625 36.288818 17.178009
95.568298 36.288818 16.891083
95.502625 35.288818 17.572632
95.666382 35.288818 16.891083
95.327332 36.288818 17.891083
95.418396 35.288818 17.891083
94.882629 34.288818 19.891083
94.898376 33.288818 19.891083
95.200378 34.288818 18.891083
95.222473 33.288818 18.891083
94.899170 32.288818 19.891083
94.884583 31.288818 19.891083
95.227783 32.288818 18.891083
95.220703 31.288818 18.891083
95.479309 34.288818 17.891083
95.736389 34.288818 16.891083
95.502625 33.640869 17.891083
95.784668 33.288818 16.891083
95.502625 33.288818 17.923401
95.502625 32.288818 17.975128
95.819336 32.288818 16.891083
95.502625 31.288818 17.989471
95.843384 31.288818 16.891083
93.502625 30.288818 23.458923
93.726318 30.288818 22.891083
93.502625 29.288818 23.379700
93.692871 29.288818 22.891083
93.502625 28.288818 23.244110
93.636658 28.288818 22.891083
93.571594 27.288818 22.891083
94.122803 30.288818 21.891083
94.095703 29.288818 21.891083
94.501221 30.288818 20.891083
94.480652 29.288818 20.891083
94.041443 28.288818 21.891083
93.973267 27.288818 21.891083
94.438354 28.288818 20.891083
94.377930 27.288818 20.891083
93.314575 30.288818 23.891083
93.279724 29.288818 23.891083
93.224609 28.288818 23.891083
93.162109 27.288818 23.891083
93.502625 26.288818 22.910522
93.502625 26.174744 22.891083
93.919373 26.288818 21.891083
93.452393 25.288818 22.891083
93.870361 25.288818 21.891083
94.331726 26.288818 20.891083
94.290161 25.288818 20.891083
93.502625 24.288818 22.629517
93.818054 24.288818 21.891083
93.502625 23.288818 22.490997
93.764893 23.288818 21.891083
94.247009 24.288818 20.891083
94.205872 23.288818 20.891083
93.086792 26.288818 23.891083
93.011292 25.288818 23.891083
92.950012 24.288818 23.891083
92.502625 23.288818 24.588989
92.871826 23.288818 23.891083
93.397888 24.288818 22.891083
93.337463 23.288818 22.891083
94.862732 30.288818 19.891083
94.844604 29.288818 19.891083
95.208618 30.288818 18.891083
95.200500 29.288818 18.891083
94.814270 28.288818 19.891083
94.502625 27.288818 20.556976
94.771362 27.288818 19.891083
95.184448 28.288818 18.891083
95.160767 27.288818 18.891083
95.502625 30.288818 17.985138
95.855469 30.288818 16.891083
95.502625 29.288818 17.992889
95.868164 29.288818 16.891083
95.502625 28.288818 17.988586
95.881165 28.288818 16.891083
95.884155 27.288818 16.891083
95.502625 27.288818 17.957916
94.502625 26.288818 20.452942
94.741821 26.288818 19.891083
94.502625 25.288818 20.363831
94.712097 25.288818 19.891083
95.144165 26.288818 18.891083
95.122559 25.288818 18.891083
94.502625 24.288818 20.272308
94.674683 24.288818 19.891083
94.502625 23.288818 20.194946
94.641174 23.288818 19.891083
95.091797 24.288818 18.891083
95.068542 23.288818 18.891083
95.886353 26.288818 16.891083
95.502625 26.288818 17.931305
95.888672 25.288818 16.891083
95.502625 25.288818 17.898193
95.502625 25.146484 17.891083
95.886780 24.288818 16.891083
95.488708 24.288818 17.891083
95.482178 23.288818 17.891083
95.891357 23.288818 16.891083
95.502625 38.288818 15.955078
95.502625 37.288818 16.613037
95.670471 37.288818 15.891083
95.502625 38.372986 15.891083
95.730896 38.288818 14.891083
95.888855 37.288818 14.891083
95.797913 36.288818 15.891083
95.898071 35.288818 15.891083
96.018066 36.288818 14.891083
96.116821 35.288818 14.891083
95.942139 38.288818 13.891083
96.106567 37.288818 13.891083
96.150696 38.288818 12.891083
96.317505 37.288818 12.891083
96.234436 36.288818 13.891083
96.325623 35.288818 13.891083
96.443298 36.288818 12.891083
96.502625 35.663513 12.891083
96.502625 35.288818 13.034851
95.976685 34.288818 15.891083
96.037781 33.288818 15.891083
96.198608 34.288818 14.891083
96.269348 33.288818 14.891083
96.089233 32.288818 15.891083
96.133606 31.288818 15.891083
96.333923 32.288818 14.891083
96.397705 31.288818 14.891083
96.405090 34.288818 13.891083
96.482544 33.288818 13.891083
96.502625 34.288818 13.432281
96.608032 34.288818 12.891083
96.691101 33.288818 12.891083
96.502625 33.000916 13.891083
96.502625 32.288818 14.133118
96.561096 32.288818 13.891083
96.502625 31.288818 14.445465
96.642883 31.288818 13.891083
96.776367 32.288818 12.891083
96.862610 31.288818 12.891083
96.341125 38.288818 11.891083
96.502625 37.291382 11.891083
96.502625 38.288818 10.860931
96.662476 37.288818 10.891083
96.502625 38.267639 10.891083
96.502625 36.288818 12.565643
96.635498 36.288818 11.891083
96.728638 35.288818 11.891083
96.794495 36.288818 10.891083
96.888611 35.288818 10.891083
96.502625 38.942261 9.891083
96.631226 38.288818 9.891083
96.789368 37.288818 9.891083
96.730835 38.288818 8.891083
96.885132 37.288818 8.891083
96.913391 36.288818 9.891083
97.006470 35.288818 9.891083
97.001526 36.288818 8.891083
97.095154 35.288818 8.891083
96.803284 34.288818 11.891083
96.880310 33.288818 11.891083
96.959839 34.288818 10.891083
97.033813 33.288818 10.891083
96.962463 32.288818 11.891083
97.045593 31.288818 11.891083
97.114990 32.288818 10.891083
97.196167 31.288818 10.891083
97.079956 34.288818 9.891083
97.154724 33.288818 9.891083
97.176575 34.288818 8.891083
97.255737 33.288818 8.891083
97.236511 32.288818 9.891083
97.318909 31.288818 9.891083
97.337097 32.288818 8.891083
97.419739 31.288818 8.891083
97.502625 30.272583 8.891083
97.502625 29.288818 9.590118
97.580933 29.288818 8.891083
97.502625 28.288818 10.046387
97.502625 27.288818 10.518799
97.605591 27.288818 9.891083
97.658508 28.288818 8.891083
97.502625 28.626709 9.891083
97.747986 27.288818 8.891083
97.502625 26.288818 10.996002
97.502625 25.288818 11.413116
97.614075 25.288818 10.891083
97.502625 24.017151 11.891083
97.502625 23.288818 12.108948
97.570618 23.288818 11.891083
97.475769 24.288818 11.891083
97.725708 24.288818 10.891083
97.846130 23.288818 10.891083
97.700134 26.288818 9.891083
97.502625 26.495789 10.891083
97.811707 25.288818 9.891083
97.854553 26.288818 8.891083
97.983032 25.288818 8.891083
97.944946 24.288818 9.891083
98.095947 23.288818 9.891083
98.135010 24.288818 8.891083
98.309265 23.288818 8.891083
96.165039 30.288818 15.891083
96.191162 29.288818 15.891083
96.454285 30.288818 14.891083
96.496094 29.288818 14.891083
96.214600 28.288818 15.891083
96.230042 27.288818 15.891083
96.502625 29.064758 14.891083
96.502625 28.288818 14.970581
96.502625 27.288818 15.043701
96.717957 30.288818 13.891083
96.770447 29.288818 13.891083
96.939392 30.288818 12.891083
96.994446 29.288818 12.891083
96.803040 28.288818 13.891083
96.831238 27.288818 13.891083
97.034424 28.288818 12.891083
97.072266 27.288818 12.891083
96.244934 26.288818 15.891083
96.256897 25.288818 15.891083
96.502625 26.288818 15.109772
96.567810 26.288818 14.891083
96.502625 25.288818 15.165802
96.586243 25.288818 14.891083
96.265381 24.288818 15.891083
96.280273 23.288818 15.891083
96.502625 24.288818 15.222504
96.609436 24.288818 14.891083
96.502625 23.288818 15.294861
96.640747 23.288818 14.891083
96.857727 26.288818 13.891083
96.888123 25.288818 13.891083
97.107422 26.288818 12.891083
97.151428 25.288818 12.891083
96.930847 24.288818 13.891083
96.979675 23.288818 13.891083
97.213501 24.288818 12.891083
97.282166 23.288818 12.891083
97.119812 30.288818 11.891083
97.174927 29.288818 11.891083
97.270386 30.288818 10.891083
97.328552 29.288818 10.891083
97.221497 28.288818 11.891083
97.271729 27.288818 11.891083
97.381287 28.288818 10.891083
97.445251 27.288818 10.891083
97.396606 30.288818 9.891083
97.463074 29.288818 9.891083
97.324036 26.288818 11.891083
97.389160 25.288818 11.891083
93.502625 22.288818 22.310425
93.693176 22.288818 21.891083
93.502625 21.288818 22.124146
93.613708 21.288818 21.891083
94.149963 22.288818 20.891083
94.085754 21.288818 20.891083
93.502625 20.288818 21.977448
94.026733 20.288818 20.891083
93.502625 19.644470 21.891083
93.481628 19.288818 21.891083
93.970520 19.288818 20.891083
92.502625 22.288818 24.355042
92.759583 22.288818 23.891083
92.502625 21.288818 24.156860
92.650452 21.288818 23.891083
93.252075 22.288818 22.891083
93.155457 21.288818 22.891083
92.502625 20.288818 23.988525
92.502625 19.759460 23.891083
92.460876 19.288818 23.891083
93.067444 20.288818 22.891083
92.984253 19.288818 22.891083
93.417542 18.288818 21.891083
93.911072 18.288818 20.891083
93.502625 17.288818 21.593994
93.843811 17.288818 20.891083
93.502625 16.288818 21.459991
93.780579 16.288818 20.891083
93.502625 15.288818 21.332062
93.722778 15.288818 20.891083
92.365479 18.288818 23.891083
92.273682 17.288818 23.891083
92.502625 18.288818 23.647583
92.904846 18.288818 22.891083
92.502625 17.288818 23.490570
92.825378 17.288818 22.891083
92.175842 16.288818 23.891083
92.072632 15.288818 23.891083
92.502625 16.288818 23.327271
92.741089 16.288818 22.891083
92.502625 15.288818 23.157379
92.649780 15.288818 22.891083
93.346924 17.288818 21.891083
93.274963 16.288818 21.891083
93.201416 15.288818 21.891083
94.502625 22.288818 20.104797
94.604492 22.288818 19.891083
94.502625 21.288818 20.010284
95.052612 22.288818 18.891083
95.035095 21.288818 18.891083
94.502625 20.288818 19.923981
94.502625 19.933533 19.891083
94.473694 19.288818 19.891083
95.011597 20.288818 18.891083
94.980713 19.288818 18.891083
95.484314 22.288818 17.891083
95.900696 22.288818 16.891083
95.485229 21.288818 17.891083
95.910645 21.288818 16.891083
95.477966 20.288818 17.891083
95.921265 20.288818 16.891083
95.464172 19.288818 17.891083
95.932922 19.288818 16.891083
94.424011 18.288818 19.891083
94.372681 17.288818 19.891083
94.946960 18.288818 18.891083
94.502625 17.288818 19.657806
94.912598 17.288818 18.891083
94.324524 16.288818 19.891083
94.280640 15.288818 19.891083
94.502625 16.288818 19.578857
94.879883 16.288818 18.891083
94.502625 15.288818 19.510864
94.852539 15.288818 18.891083
95.453796 18.288818 17.891083
95.951233 18.288818 16.891083
95.443542 17.288818 17.891083
95.968262 17.288818 16.891083
95.432800 16.288818 17.891083
95.978516 16.288818 16.891083
95.426331 15.288818 17.891083
95.988892 15.288818 16.891083
93.502625 14.288818 21.206085
93.662476 14.288818 20.891083
93.502625 13.288818 21.088715
93.603088 13.288818 20.891083
93.502625 12.288818 20.958130
91.502625 14.288818 24.697083
91.977722 14.288818 23.891083
91.502625 13.288818 24.542053
91.890991 13.288818 23.891083
92.502625 14.288818 22.998169
92.502625 13.550659 22.891083
9.394653 7.288818 -71.108917
10.502625 7.288818 -71.296600
10.502625 6.783264 -71.108917
11.502625 7.288818 -71.457336
11.502625 6.288818 -71.067749
11.776611 6.288818 -71.108917
12.502625 6.288818 -71.221436
12.502625 6.015015 -71.108917
13.502625 6.288818 -71.353271
13.502625 5.698181 -71.108917
12.502625 7.288818 -71.610046
13.502625 7.288818 -71.754730
92.484314 13.288818 22.891083
15.502625 5.155884 -71.108917
16.502625 5.288818 -71.267029
16.502625 4.909546 -71.108917
17.502625 5.288818 -71.377625
17.502625 4.679871 -71.108917
14.502625 6.288818 -71.470856
14.502625 5.288818 -71.058167
15.502625 6.288818 -71.586639
14.972778 5.288818 -71.108917
14.502625 7.288818 -71.884399
15.502625 7.288818 -72.010803
16.502625 7.196350 -72.108917
17.502625 7.288818 -72.257080
17.502625 6.887146 -72.108917
16.502625 6.288818 -71.713715
17.502625 6.288818 -71.839752
16.258057 7.288818 -72.108917
18.502625 5.288818 -71.490356
18.502625 4.288818 -71.029602
19.337524 4.288818 -71.108917
19.502625 5.288818 -71.596161
91.502625 12.288818 24.399780
91.807312 12.288818 23.891083
91.502625 11.288818 24.266296
91.723755 11.288818 23.891083
20.502625 4.105469 -71.108917
21.502625 4.288818 -71.256500
21.502625 3.987366 -71.108917
20.502625 5.288818 -71.679871
21.502625 5.288818 -71.734833
18.502625 7.288818 -72.351288
18.502625 6.631775 -72.108917
19.502625 7.288818 -72.435699
19.502625 6.288818 -72.053894
18.502625 6.288818 -71.953461
92.404541 12.288818 22.891083
92.308899 11.288818 22.891083
20.188293 6.288818 -72.108917
20.502625 7.288818 -72.508636
20.502625 6.239075 -72.108917
21.502625 7.288818 -72.563385
21.502625 6.126160 -72.108917
22.502625 4.288818 -71.310394
22.502625 3.850464 -71.108917
23.502625 4.288818 -71.370422
23.502625 3.677673 -71.108917
22.502625 5.288818 -71.772583
23.502625 5.288818 -71.807587
24.502625 4.288818 -71.432922
24.502625 3.506104 -71.108917
25.502625 4.288818 -71.489838
25.502625 3.288818 -71.080872
24.502625 5.288818 -71.851227
25.502625 5.288818 -71.902557
22.502625 6.288818 -72.213318
22.502625 6.051880 -72.108917
23.502625 6.288818 -72.241730
23.502625 5.991028 -72.108917
22.502625 7.288818 -72.607819
23.502625 7.288818 -72.655182
24.502625 6.288818 -72.278046
24.502625 5.911926 -72.108917
25.502625 6.288818 -72.326385
25.502625 5.802307 -72.108917
24.502625 7.288818 -72.709961
25.502625 7.288818 -72.769623
93.126404 14.288818 21.891083
93.059509 13.288818 21.891083
92.984863 12.288818 21.891083
92.502625 11.288818 22.541626
92.884155 11.288818 21.891083
93.502625 11.904541 20.891083
93.446777 11.288818 20.891083
91.502625 10.288818 24.128357
91.639893 10.288818 23.891083
91.502625 9.288818 23.986969
92.206055 10.288818 22.891083
92.114868 9.288818 22.891083
91.502625 8.595703 23.891083
91.478333 8.288818 23.891083
92.035339 8.288818 22.891083
91.403870 7.288818 23.891083
91.959412 7.288818 22.891083
92.502625 10.288818 22.348572
92.769592 10.288818 21.891083
92.502625 9.288818 22.182648
92.673035 9.288818 21.891083
93.338318 10.288818 20.891083
93.241638 9.288818 20.891083
92.502625 8.288818 22.053406
92.502625 7.288818 21.927917
93.159363 8.288818 20.891083
93.073853 7.288818 20.891083
94.232666 14.288818 19.891083
94.176514 13.288818 19.891083
94.502625 14.288818 19.442139
94.820068 14.288818 18.891083
94.502625 13.288818 19.358643
94.773743 13.288818 18.891083
94.108582 12.288818 19.891083
8.502625 7.743469 -71.108917
8.502625 8.288818 -71.317963
9.502625 8.288818 -71.503021
8.502625 9.288818 -71.657745
9.502625 9.288818 -71.850433
94.014404 11.288818 19.891083
9.095032 10.288818 -72.108917
9.502625 10.288818 -72.177521
9.502625 10.091187 -72.108917
8.502625 10.595886 -72.108917
8.502625 11.288818 -72.332550
9.502625 11.288818 -72.502655
94.502625 12.288818 19.251495
94.712036 12.288818 18.891083
94.502625 11.288818 19.093018
94.619141 11.288818 18.891083
8.502625 13.571716 -73.108917
8.502625 14.288818 -73.361115
9.502625 14.288818 -73.541656
9.126831 13.288818 -73.108917
9.502625 13.127136 -73.108917
8.502625 15.288818 -73.679596
9.502625 15.288818 -73.882599
8.502625 12.288818 -72.663574
9.502625 12.288818 -72.822601
8.502625 13.288818 -73.009705
95.407959 14.288818 17.891083
95.978943 14.288818 16.891083
95.502625 13.288818 17.668610
95.943298 13.288818 16.891083
95.369934 13.288818 17.891083
95.502625 12.288818 17.579315
95.892639 12.288818 16.891083
95.502625 11.288818 17.428589
95.808350 11.288818 16.891083
95.315979 12.288818 17.891083
95.225769 11.288818 17.891083
93.502625 10.288818 20.576294
93.898560 10.288818 19.891083
93.502625 9.288818 20.393890
93.790771 9.288818 19.891083
7.502625 19.811584 -75.108917
8.502625 20.288818 -75.429169
8.502625 19.571289 -75.108917
9.502625 20.288818 -75.547089
9.227722 19.288818 -75.108917
9.502625 19.169189 -75.108917
8.502625 21.288818 -75.821594
9.502625 21.288818 -75.937378
94.497192 10.288818 18.891083
8.502625 22.177368 -76.108917
9.502625 22.288818 -76.274963
9.502625 21.803284 -76.108917
8.502625 23.288818 -76.442841
9.502625 23.288818 -76.576569
94.372559 9.288818 18.891083
93.502625 8.288818 20.228699
93.690857 8.288818 19.891083
93.502625 7.288818 20.041534
94.242126 8.288818 18.891083
9.053223 16.288818 -74.108917
9.502625 16.288818 -74.192474
9.502625 16.037170 -74.108917
8.502625 16.645996 -74.108917
8.502625 17.288818 -74.311127
9.502625 17.288818 -74.493042
8.502625 16.288818 -73.993347
94.094666 7.288818 18.891083
95.502625 10.288818 17.209839
95.682556 10.288818 16.891083
95.502625 9.288818 16.936890
8.502625 18.288818 -74.643707
9.502625 18.288818 -74.811523
7.502625 19.288818 -74.889313
8.502625 19.288818 -75.003540
95.098572 10.288818 17.891083
94.502625 9.288818 18.658691
94.955688 9.288818 17.891083
94.502625 8.288818 18.404327
94.793152 8.288818 17.891083
10.945068 9.288818 -72.108917
11.502625 9.288818 -72.189850
11.502625 9.029175 -72.108917
10.502625 8.288818 -71.680786
11.502625 8.288818 -71.840302
10.502625 9.288818 -72.033478
12.502625 9.288818 -72.342834
12.502625 8.597412 -72.108917
13.502625 9.288818 -72.500031
13.249451 8.288818 -72.108917
13.502625 8.205750 -72.108917
12.502625 8.288818 -71.990875
10.502625 10.288818 -72.355957
10.502625 9.534180 -72.108917
11.502625 10.288818 -72.518768
10.502625 11.288818 -72.678833
11.502625 11.288818 -72.844482
12.502625 10.288818 -72.683350
13.502625 10.288818 -72.840363
12.502625 11.288818 -73.006470
13.150879 11.288818 -73.108917
13.502625 11.123596 -73.108917
14.502625 11.288818 -73.303497
14.502625 10.694092 -73.108917
15.502625 11.288818 -73.434357
15.684753 10.288818 -73.108917
16.502625 10.288818 -73.198364
16.502625 10.028809 -73.108917
17.502625 10.288818 -73.293732
17.502625 9.742737 -73.108917
16.502625 11.288818 -73.553589
17.502625 11.288818 -73.656799
94.502625 7.288818 18.096130
94.614380 7.288818 17.891083
14.502625 8.288818 -72.280762
14.502625 7.871765 -72.108917
15.502625 8.288818 -72.406769
15.502625 7.548645 -72.108917
14.502625 9.288818 -72.641907
15.502625 9.288818 -72.760376
16.502625 8.288818 -72.528198
17.502625 8.288818 -72.635742
16.502625 9.288818 -72.868652
17.502625 9.288818 -72.965393
14.502625 10.288818 -72.973511
95.344971 8.288818 16.891083
10.502625 13.288818 -73.349274
10.502625 12.626038 -73.108917
11.502625 13.288818 -73.539825
11.125488 12.288818 -73.108917
11.502625 12.098389 -73.108917
95.145264 7.288818 16.891083
12.502625 12.288818 -73.353241
12.502625 11.610229 -73.108917
13.502625 12.288818 -73.508575
12.502625 13.288818 -73.720398
13.502625 13.288818 -73.877502
10.502625 15.392090 -74.108917
11.502625 15.288818 -74.254547
11.502625 14.821289 -74.108917
10.502625 14.288818 -73.728699
11.502625 14.288818 -73.914307
12.666199 14.288818 -74.108917
13.502625 14.288818 -74.230469
13.502625 13.957520 -74.108917
12.502625 15.288818 -74.411072
12.502625 14.361816 -74.108917
13.502625 15.288818 -74.556915
10.502625 12.288818 -72.996094
14.502625 12.288818 -73.652679
15.502625 12.288818 -73.788574
14.502625 13.288818 -74.015442
15.216370 13.288818 -74.108917
15.502625 13.186462 -74.108917
16.502625 13.288818 -74.273468
16.502625 12.812134 -74.108917
17.502625 13.288818 -74.400421
17.502625 12.488953 -74.108917
16.502625 12.288818 -73.915497
17.502625 12.288818 -74.030029
14.502625 14.288818 -74.369232
14.502625 13.571411 -74.108917
15.502625 14.288818 -74.505127
14.502625 15.288818 -74.699371
15.502625 15.288818 -74.835785
16.502625 14.288818 -74.636414
17.502625 14.288818 -74.763367
16.502625 15.288818 -74.962067
17.698181 15.288818 -75.108917
18.502625 15.288818 -75.216949
18.502625 14.933533 -75.108917
19.502625 15.288818 -75.350922
19.502625 14.557861 -75.108917
20.357605 14.288818 -75.108917
21.502625 14.288818 -75.233948
21.502625 13.973511 -75.108917
20.502625 15.288818 -75.479889
21.502625 15.288818 -75.597748
23.783875 13.288818 -75.108917
24.502625 13.288818 -75.210358
24.502625 13.015015 -75.108917
25.502625 13.288818 -75.335052
25.502625 12.699158 -75.108917
22.502625 14.288818 -75.337677
22.502625 13.712830 -75.108917
23.502625 14.288818 -75.460999
23.502625 13.288818 -75.073364
22.502625 15.288818 -75.713928
23.502625 15.288818 -75.847961
97.502625 20.288818 12.973145
97.502625 19.288818 13.246796
97.625977 19.288818 12.891083
24.502625 14.288818 -75.598389
25.502625 14.288818 -75.732941
24.502625 15.288818 -75.996674
25.248291 15.288818 -76.108917
25.502625 15.200195 -76.108917
97.502625 18.288818 13.475128
97.723999 18.288818 12.891083
19.502625 9.209778 -73.108917
20.502625 9.288818 -73.219788
20.502625 8.983643 -73.108917
21.502625 9.288818 -73.295074
21.502625 8.798157 -73.108917
18.502625 10.288818 -73.386292
18.502625 9.288818 -73.049072
19.196899 9.288818 -73.108917
19.502625 10.288818 -73.487488
18.502625 11.288818 -73.761993
19.502625 11.288818 -73.869934
20.502625 10.288818 -73.589355
21.502625 10.288818 -73.677856
20.502625 11.288818 -73.975037
21.502625 11.288818 -74.065674
18.502625 8.288818 -72.720306
19.502625 8.288818 -72.795013
20.502625 8.288818 -72.861969
21.502625 8.288818 -72.921265
97.502625 17.288818 13.669128
97.821289 17.288818 12.891083
22.502625 9.288818 -73.375244
22.502625 8.610718 -73.108917
23.502625 9.288818 -73.462067
23.502625 8.288818 -73.053894
97.465149 16.288818 13.891083
97.912598 16.288818 12.891083
97.502625 15.675232 13.891083
24.283142 8.288818 -73.108917
24.502625 9.288818 -73.547211
24.502625 8.253052 -73.108917
25.502625 9.288818 -73.625427
25.502625 8.099670 -73.108917
98.001526 15.288818 12.891083
97.502625 15.288818 13.932922
22.502625 11.164246 -74.108917
23.502625 11.288818 -74.262207
23.502625 10.887024 -74.108917
22.502625 10.288818 -73.765778
23.502625 10.288818 -73.864441
22.038940 11.288818 -74.108917
24.502625 11.288818 -74.384003
24.502625 10.612732 -74.108917
25.502625 11.288818 -74.497864
25.502625 10.288818 -74.061279
24.502625 10.288818 -73.968231
97.502625 22.288818 12.380676
97.664307 22.288818 11.891083
22.502625 8.288818 -72.983917
97.502625 21.288818 12.661194
97.765259 21.288818 11.891083
18.502625 12.213379 -74.108917
19.502625 12.288818 -74.252502
19.502625 11.938416 -74.108917
18.249573 12.288818 -74.108917
18.502625 13.288818 -74.521942
19.502625 13.288818 -74.642029
20.502625 12.288818 -74.362427
20.502625 11.662231 -74.108917
21.502625 12.288818 -74.460052
20.502625 13.288818 -74.754761
21.502625 13.288818 -74.853790
97.970032 22.288818 10.891083
18.502625 14.288818 -74.886536
19.502625 14.288818 -75.008881
98.096619 21.288818 10.891083
22.502625 12.288818 -74.558350
23.502625 12.288818 -74.678070
22.502625 13.288818 -74.952362
97.876160 20.288818 11.891083
97.502625 20.532471 12.891083
24.502625 12.288818 -74.810516
25.502625 12.288818 -74.932251
13.049683 17.288818 -75.108917
13.502625 17.288818 -75.181763
13.502625 17.045898 -75.108917
97.996704 19.288818 11.891083
10.502625 19.288818 -75.331879
10.502625 18.650940 -75.108917
11.502625 19.288818 -75.512024
11.226929 18.288818 -75.108917
11.502625 18.161377 -75.108917
12.502625 18.288818 -75.328796
12.502625 17.625183 -75.108917
13.502625 18.288818 -75.499054
12.502625 19.288818 -75.682648
13.502625 19.288818 -75.839020
98.229797 20.288818 10.891083
14.502625 17.288818 -75.337250
14.502625 16.570801 -75.108917
15.502625 17.288818 -75.476318
15.174194 16.288818 -75.108917
15.502625 16.168030 -75.108917
16.502625 16.288818 -75.283295
16.502625 15.776367 -75.108917
17.502625 16.288818 -75.413605
17.502625 15.367798 -75.108917
16.502625 17.288818 -75.614716
17.502625 17.288818 -75.758820
98.375366 19.288818 10.891083
14.502625 18.288818 -75.656677
15.502625 18.288818 -75.803986
14.502625 19.288818 -75.985931
15.313354 19.288818 -76.108917
15.502625 19.201294 -76.108917
16.502625 19.288818 -76.297821
