107.353386 72.157829 -7.515164
107.465630 71.157829 -6.515164
107.522087 70.157829 -6.515164
107.429558 71.157829 -7.515164
107.514030 70.157829 -7.515164
107.203911 73.157829 -8.515164
107.293633 72.157829 -8.515164
107.115593 73.157829 -9.515163
107.231743 72.157829 -9.515163
107.392876 71.157829 -8.515164
107.505058 70.157829 -8.515164
107.361992 71.157829 -9.515163
107.504631 70.157829 -9.515163
106.542778 77.157829 -9.724941
106.460136 77.157829 -10.515163
106.542778 76.614861 -10.515163
106.607292 76.157829 -10.515163
106.357536 77.157829 -11.515163
106.542778 76.157829 -11.077023
106.500481 76.157829 -11.515163
106.746452 75.157829 -10.515163
106.885124 74.157829 -10.515163
106.542778 75.819206 -11.515163
106.638542 75.157829 -11.515163
106.790764 74.157829 -11.515163
106.254326 77.157829 -12.515163
106.400139 76.157829 -12.515163
106.147453 77.157829 -13.515163
106.300529 76.157829 -13.515163
106.542778 75.157829 -12.525539
106.721550 74.157829 -12.515163
106.466606 75.157829 -13.515163
106.542778 74.780205 -13.515163
106.673576 74.157829 -13.515163
107.651970 70.157829 -13.515163
107.542778 70.626762 -13.515163
107.577690 70.157829 -12.515163
107.027580 73.157829 -10.515163
107.175224 72.157829 -10.515163
106.961418 73.157829 -11.515163
107.141167 72.157829 -11.515163
107.337212 71.157829 -10.515163
107.542778 69.971489 -10.515163
107.331474 71.157829 -11.515163
107.542778 70.095207 -11.515163
106.925835 73.157829 -12.515163
107.138664 72.157829 -12.515163
106.917168 73.157829 -13.515163
107.163628 72.157829 -13.515163
107.357414 71.157829 -12.515163
107.542778 70.157829 -11.861568
107.408501 71.157829 -13.515163
106.766533 69.157829 1.484835
106.542778 68.157829 1.976961
106.667839 68.157829 1.484835
106.965752 69.157829 0.484835
106.882317 68.157829 0.484835
106.542778 67.157829 1.605868
106.542778 66.804619 1.484835
106.494072 66.157829 1.484835
106.801750 67.157829 0.484835
106.732353 66.157829 0.484835
107.131767 69.157829 -0.515165
107.062492 68.157829 -0.515165
107.264275 69.157829 -1.515165
107.212029 68.157829 -1.515165
106.995781 67.157829 -0.515165
106.940849 66.157829 -0.515165
107.164970 67.157829 -1.515165
107.127495 66.157829 -1.515165
106.420708 65.157829 1.484835
106.345329 64.157829 1.484835
106.542778 65.157829 1.026217
106.674065 65.157829 0.484835
106.542778 64.157829 0.779970
106.617973 64.157829 0.484835
106.259148 63.157833 1.484835
106.165031 62.157833 1.484835
106.542778 63.157833 0.516726
106.479424 62.157833 0.484835
106.902885 65.157829 -0.515165
106.872795 64.157829 -0.515165
107.105888 65.157829 -1.515165
107.096428 64.157829 -1.515165
106.831291 63.157833 -0.515165
106.542778 62.157833 0.260378
106.778313 62.157833 -0.515165
107.080437 63.157833 -1.515165
107.052727 62.157833 -1.515165
107.542778 69.452751 -5.515164
107.542778 69.157829 -5.160092
107.555473 69.157829 -5.515164
107.531792 68.157829 -4.515164
107.601921 68.157829 -5.515164
107.542778 67.157829 -4.414395
107.542778 66.157829 -4.279874
107.576408 66.157829 -4.515164
107.542778 67.638115 -4.515164
107.654106 67.157829 -5.515164
107.702629 66.157829 -5.515164
107.366386 69.157829 -2.515165
107.335564 68.157829 -2.515165
107.448601 69.157829 -3.515165
107.441521 68.157829 -3.515165
107.313103 67.157829 -2.515165
107.297478 66.157829 -2.515165
107.441521 67.157829 -3.515165
107.444328 66.157829 -3.515165
107.512260 69.157829 -4.515164
107.542778 65.157829 -4.122952
107.607414 65.157829 -4.515164
107.542778 64.157829 -3.947232
107.649345 64.157829 -4.515164
107.755486 65.157829 -5.515164
107.817924 64.157829 -5.515164
107.542778 63.157833 -3.796537
107.689690 63.157833 -4.515164
107.510124 62.157833 -3.515165
107.725761 62.157833 -4.515164
107.876396 63.157833 -5.515164
107.923271 62.157833 -5.515164
107.289909 65.157829 -2.515165
107.291740 64.157829 -2.515165
107.453300 65.157829 -3.515165
107.469963 64.157829 -3.515165
107.294426 63.157833 -2.515165
107.291679 62.157833 -2.515165
107.490288 63.157833 -3.515165
106.062065 61.157833 1.484835
105.955864 60.157833 1.484835
106.399529 61.157833 0.484835
106.310966 60.157833 0.484835
105.852165 59.157833 1.484835
105.542778 58.157833 2.000460
105.747734 58.157833 1.484835
106.219231 59.157833 0.484835
106.126457 58.157833 0.484835
106.542778 61.157833 0.019533
106.718803 61.157833 -0.515165
106.542778 60.157833 -0.213071
106.649040 60.157833 -0.515165
107.014824 61.157833 -1.515165
106.964470 60.157833 -1.515165
106.542778 59.157833 -0.433897
106.542778 58.794613 -0.515165
106.496086 58.157833 -0.515165
106.906670 59.157833 -1.515165
106.845695 58.157833 -1.515165
105.542778 57.157833 1.710146
105.637505 57.157833 1.484835
105.542778 56.384640 1.484835
106.028618 57.157833 0.484835
105.921440 56.157833 0.484835
105.514519 56.157833 1.484835
105.542778 55.157833 1.104097
105.801750 55.157833 0.484835
105.542778 54.157833 0.777834
105.667046 54.157833 0.484835
105.378899 55.157833 1.484835
105.230095 54.157833 1.484835
106.411369 57.157833 -0.515165
106.317680 56.157833 -0.515165
106.542778 57.157833 -0.851804
106.776848 57.157833 -1.515165
106.542778 56.157833 -1.080289
106.700066 56.157833 -1.515165
106.213432 55.157833 -0.515165
106.090935 54.157833 -0.515165
106.542778 55.157833 -1.326536
106.542778 54.524654 -1.515165
106.504631 54.157833 -1.515165
107.511955 61.157833 -3.515165
107.746147 61.157833 -4.515164
107.497551 60.157833 -3.515165
107.749504 60.157833 -4.515164
107.955315 61.157833 -5.515164
107.974358 60.157833 -5.515164
107.542778 59.157833 -3.765683
107.745659 59.157833 -4.515164
107.542778 58.157833 -3.825834
107.739494 58.157833 -4.515164
107.984673 59.157833 -5.515164
107.993340 58.157833 -5.515164
107.275139 61.157833 -2.515165
107.244804 60.157833 -2.515165
107.208366 59.157833 -2.515165
107.168205 58.157833 -2.515165
107.480034 59.157833 -3.515165
107.459892 58.157833 -3.515165
107.542778 57.157833 -3.893277
107.730461 57.157833 -4.515164
107.542778 56.157833 -3.990751
107.710625 56.157833 -4.515164
108.000969 57.157833 -5.515164
107.997856 56.157833 -5.515164
107.542778 55.157833 -4.126859
107.673454 55.157833 -4.515164
107.542778 54.157833 -4.313596
107.612724 54.157833 -4.515164
107.969048 55.157833 -5.515164
107.910332 54.157833 -5.515164
107.122124 57.157833 -2.515165
107.067863 56.157833 -2.515165
107.435356 57.157833 -3.515165
107.400322 56.157833 -3.515165
107.000237 55.157833 -2.515165
106.909599 54.157833 -2.515165
107.350700 55.157833 -3.515165
107.280754 54.157833 -3.515165
107.585747 69.157829 -6.515164
107.542778 69.785027 -6.515164
107.658745 68.157829 -6.515164
107.608452 69.157829 -7.515164
107.542778 69.807304 -7.515164
107.710197 68.157829 -7.515164
107.738518 67.157829 -6.515164
107.814995 66.157829 -6.515164
107.814812 67.157829 -7.515164
107.914543 66.157829 -7.515164
107.629448 69.157829 -8.515164
107.542778 69.811699 -8.515164
107.755791 68.157829 -8.515164
107.658562 69.157829 -9.515163
107.542778 69.878593 -9.515163
107.807060 68.157829 -9.515163
107.880180 67.157829 -8.515164
108.003471 66.157829 -8.515164
107.950127 67.157829 -9.515163
108.095757 66.157829 -9.515163
107.889702 65.157829 -6.515164
107.968193 64.157829 -6.515164
108.008110 65.157829 -7.515164
108.101555 64.157829 -7.515164
108.043816 63.157833 -6.515164
108.103752 62.157833 -6.515164
108.195915 63.157833 -7.515164
108.275322 62.157833 -7.515164
108.120964 65.157829 -8.515164
108.234550 64.157829 -8.515164
108.241570 65.157829 -9.515163
108.379631 64.157829 -9.515163
108.347710 63.157833 -8.515164
108.447929 62.157833 -8.515164
108.508476 63.157833 -9.515163
108.542778 62.898006 -9.515163
108.542778 62.157833 -9.032437
108.624870 62.157833 -9.515163
107.695122 69.157829 -10.515163
107.866936 68.157829 -10.515163
107.738640 69.157829 -11.515163
107.933281 68.157829 -11.515163
108.033867 67.157829 -10.515163
108.202446 66.157829 -10.515163
108.123833 67.157829 -11.515163
108.314323 66.157829 -11.515163
107.799492 69.157829 -12.515163
108.014397 68.157829 -12.515163
107.886650 69.157829 -13.515163
108.118034 68.157829 -13.515163
108.226311 67.157829 -12.515163
108.432610 66.157829 -12.515163
108.343681 67.157829 -13.515163
108.542778 66.157829 -13.395931
108.373772 65.157829 -10.515163
108.542778 64.085136 -10.515163
108.542778 64.971428 -11.515163
108.686638 64.157829 -11.515163
108.542778 63.157833 -9.740475
108.678764 63.157833 -10.515163
108.811821 62.157833 -10.515163
108.851860 63.157833 -11.515163
108.999565 62.157833 -11.515163
108.542778 65.586418 -12.515163
108.542778 65.157829 -11.819668
108.635490 65.157829 -12.515163
108.833672 64.157829 -12.515163
108.766777 65.157829 -13.515163
108.972954 64.157829 -13.515163
109.016716 63.157833 -12.515163
109.176140 62.157833 -12.515163
109.167107 63.157833 -13.515163
109.337334 62.157833 -13.515163
108.146965 61.157833 -6.515164
108.183159 60.157833 -6.515164
108.335808 61.157833 -7.515164
108.389702 60.157833 -7.515164
108.211601 59.157833 -6.515164
108.233940 58.157833 -6.515164
108.434929 59.157833 -7.515164
108.469719 58.157833 -7.515164
108.542778 60.995235 -8.515164
108.542778 60.157833 -8.265592
108.599236 60.157833 -8.515164
108.724541 61.157833 -9.515163
108.810661 60.157833 -9.515163
108.542778 59.157833 -8.029111
108.656425 59.157833 -8.515164
108.542778 58.157833 -7.849087
108.704948 58.157833 -8.515164
108.883415 59.157833 -9.515163
108.945000 58.157833 -9.515163
108.253105 57.157833 -6.515164
108.259270 56.157833 -6.515164
108.494804 57.157833 -7.515164
108.500664 56.157833 -7.515164
108.234489 55.157833 -6.515164
108.181694 54.157833 -6.515164
108.479729 55.157833 -7.515164
108.437798 54.157833 -7.515164
108.542778 57.157833 -7.728726
108.739433 57.157833 -8.515164
108.745598 56.157833 -8.515164
108.986748 57.157833 -9.515163
108.993767 56.157833 -9.515163
108.542778 55.157833 -7.793362
108.724724 55.157833 -8.515164
108.542778 54.157833 -7.963589
108.684441 54.157833 -8.515164
108.969719 55.157833 -9.515163
108.926384 54.157833 -9.515163
108.925224 61.157833 -10.515163
109.023247 60.157833 -10.515163
109.125603 61.157833 -11.515163
109.232964 60.157833 -11.515163
109.106621 59.157833 -10.515163
109.175041 58.157833 -10.515163
109.320061 59.157833 -11.515163
109.386040 58.157833 -11.515163
109.542778 60.634762 -13.515163
109.542778 60.157833 -13.171871
109.596855 60.157833 -13.515163
109.312065 61.157833 -12.515163
109.427422 60.157833 -12.515163
109.478264 61.157833 -13.515163
109.542778 58.817928 -12.515163
109.542778 58.157833 -12.310665
109.583427 58.157833 -12.515163
109.517754 59.157833 -12.515163
109.688408 59.157833 -13.515163
109.752739 58.157833 -13.515163
109.220146 57.157833 -10.515163
109.231499 56.157833 -10.515163
109.429253 57.157833 -11.515163
109.445549 56.157833 -11.515163
109.208733 55.157833 -10.515163
109.161064 54.157833 -10.515163
109.428520 55.157833 -11.515163
109.380241 54.157833 -11.515163
109.542778 57.157833 -12.097103
109.625725 57.157833 -12.515163
109.542778 56.157833 -12.010921
109.643059 56.157833 -12.515163
109.795952 57.157833 -13.515163
109.814140 56.157833 -13.515163
109.542778 55.157833 -12.084774
109.629753 55.157833 -12.515163
109.542778 54.157833 -12.323971
109.799309 55.157833 -13.515163
109.751274 54.157833 -13.515163
103.519035 53.157833 4.484835
104.053337 53.157833 3.484835
103.542778 52.157833 4.059481
103.856499 52.157833 3.484835
104.542778 53.157833 2.558779
104.393486 52.157833 2.484835
103.542778 51.157833 3.698396
103.661980 51.157833 3.484835
103.542778 50.606503 3.484835
104.196892 51.157833 2.484835
103.986992 50.157833 2.484835
103.453423 50.157833 3.484835
103.542778 49.157833 2.946840
103.778435 49.157833 2.484835
103.542778 48.157833 2.553988
103.542778 47.977352 2.484835
105.520866 53.157833 0.484835
105.070000 53.157833 1.484835
104.542778 52.157833 2.176424
104.897636 52.157833 1.484835
105.369011 52.157833 0.484835
104.542778 51.157833 1.799166
104.708794 51.157833 1.484835
104.510246 50.157833 1.484835
105.193169 51.157833 0.484835
105.002739 50.157833 0.484835
105.954826 53.157833 -0.515165
105.542778 52.157833 0.087130
105.805412 52.157833 -0.515165
106.378166 53.157833 -1.515165
106.230339 52.157833 -1.515165
105.542778 51.157833 -0.302305
105.636650 51.157833 -0.515165
105.542778 50.643978 -0.515165
106.065117 51.157833 -1.515165
105.895927 50.157833 -1.515165
105.461113 50.157833 -0.515165
104.317680 49.157833 1.484835
104.121635 48.157833 1.484835
104.542778 49.157833 1.063936
104.819939 49.157833 0.484835
104.542778 48.157833 0.686800
104.636528 48.157833 0.484835
103.542778 47.157833 2.148867
103.912163 47.157833 1.484835
103.542778 46.157833 1.738161
103.686089 46.157833 1.484835
104.542778 47.652645 0.484835
104.433952 47.157833 0.484835
104.204033 46.157833 0.484835
105.542778 49.157833 -1.078977
105.724113 49.157833 -1.515165
105.542778 48.157833 -1.500028
105.291435 49.157833 -0.515165
105.111809 48.157833 -0.515165
104.911064 47.157833 -0.515165
104.542778 47.157833 0.251559
104.542778 46.157833 -0.214506
104.692863 46.157833 -0.515165
105.361259 47.157833 -1.515165
105.150932 46.157833 -1.515165
107.542778 53.375057 -4.515164
107.825249 53.157833 -5.515164
107.518364 53.157833 -4.515164
107.542778 52.157833 -4.954129
107.710686 52.157833 -5.515164
107.542778 51.157833 -5.395932
106.542778 53.157833 -1.937833
106.789482 53.157833 -2.515165
106.542778 52.157833 -2.293943
106.639580 52.157833 -2.515165
107.178032 53.157833 -3.515165
107.039177 52.157833 -3.515165
106.542778 51.538204 -2.515165
106.479362 51.157833 -2.515165
106.316277 50.157833 -2.515165
106.883171 51.157833 -3.515165
106.542778 50.157833 -3.057737
106.719536 50.157833 -3.515165
107.392815 52.157833 -4.515164
107.252129 51.157833 -4.515164
107.099846 50.157833 -4.515164
107.542778 50.919918 -5.515164
107.438408 50.157833 -5.515164
106.142387 49.157833 -2.515165
105.967888 48.157833 -2.515165
106.542778 49.157833 -3.504544
106.373650 48.157833 -3.515165
105.542778 47.157833 -1.954679
105.782524 47.157833 -2.515165
105.542778 46.157833 -2.435850
106.189445 47.157833 -3.515165
105.996696 46.157833 -3.515165
106.933281 49.157833 -4.515164
106.542778 48.157833 -3.972013
106.759758 48.157833 -4.515164
107.287773 49.157833 -5.515164
107.130974 48.157833 -5.515164
106.542778 47.157833 -4.418698
106.542778 46.948483 -4.515164
106.410576 46.157833 -4.515164
106.971672 47.157833 -5.515164
106.542778 46.157833 -4.821103
106.812187 46.157833 -5.515164
103.542778 45.531429 1.484835
103.964775 45.157833 0.484835
103.447014 45.157833 1.484835
103.542778 44.157833 0.857577
103.726433 44.157833 0.484835
103.496208 43.157833 0.484835
104.542778 45.444515 -0.515165
104.473869 45.157833 -0.515165
104.241753 44.157833 -0.515165
104.938225 45.157833 -1.515165
104.542778 44.157833 -1.104856
104.721550 44.157833 -1.515165
104.007500 43.157833 -0.515165
103.542778 42.157833 -0.067716
103.778313 42.157833 -0.515165
104.498894 43.157833 -1.515165
104.274040 42.157833 -1.515165
103.542778 41.186825 -0.515165
104.035942 41.157833 -1.515165
103.542778 40.157833 -0.980924
103.797600 40.157833 -1.515165
103.542778 39.157833 -1.446561
103.542778 39.024410 -1.515165
105.542778 45.157833 -2.894864
105.808281 45.157833 -3.515165
105.542778 44.157833 -3.343717
105.379509 45.157833 -2.515165
105.179436 44.157833 -2.515165
104.967461 43.157833 -2.515165
104.542778 42.157833 -2.091642
104.756706 42.157833 -2.515165
105.542778 43.771236 -3.515165
105.426323 43.157833 -3.515165
105.236809 42.157833 -3.515165
106.234856 45.157833 -4.515164
106.051811 44.157833 -4.515164
106.542778 45.157833 -5.233975
106.650810 45.157833 -5.515164
106.542778 44.542416 -5.515164
106.482292 44.157833 -5.515164
105.871391 43.157833 -4.515164
105.542778 43.157833 -3.779630
105.542778 42.157833 -4.185056
105.694756 42.157833 -4.515164
106.313103 43.157833 -5.515164
106.142021 42.157833 -5.515164
104.539360 41.157833 -2.515165
104.312675 40.157833 -2.515165
105.031548 41.157833 -3.515165
104.542778 40.157833 -2.949888
104.819389 40.157833 -3.515165
104.091667 39.157833 -2.515165
103.542778 38.157837 -1.887052
103.877373 38.157837 -2.515165
104.542778 39.157833 -3.373349
104.542778 38.850277 -3.515165
104.408073 38.157837 -3.515165
105.505852 41.157833 -4.515164
105.964043 41.157833 -5.515164
105.542778 40.157833 -4.969357
105.791862 40.157833 -5.515164
105.320488 40.157833 -4.515164
105.542778 39.157833 -5.349027
105.128532 39.157833 -4.515164
104.932915 38.157837 -4.515164
104.542778 38.157837 -3.782560
105.542778 38.745846 -5.515164
105.446159 38.157837 -5.515164
108.109001 53.157833 -6.515164
108.009148 52.157833 -6.515164
108.377373 53.157833 -7.515164
108.291496 52.157833 -7.515164
107.892998 51.157833 -6.515164
107.542778 50.157833 -5.855191
107.765068 50.157833 -6.515164
108.187126 51.157833 -7.515164
108.070000 50.157833 -7.515164
108.542778 53.157833 -8.199246
108.625298 53.157833 -8.515164
108.542778 52.157833 -8.491910
108.866264 53.157833 -9.515163
108.795280 52.157833 -9.515163
108.461540 51.157833 -8.515164
108.361809 50.157833 -8.515164
108.542778 51.157833 -8.803403
108.719963 51.157833 -9.515163
108.542778 50.157833 -9.149320
108.634819 50.157833 -9.515163
107.542778 49.157833 -6.294095
107.621941 49.157833 -6.515164
107.542778 48.650875 -6.515164
107.942986 49.157833 -7.515164
107.812004 48.157833 -7.515164
107.474480 48.157833 -6.515164
107.542778 47.157833 -7.105649
107.678215 47.157833 -7.515164
107.542778 46.157833 -7.506680
107.542778 46.134518 -7.515164
108.253227 49.157833 -8.515164
108.136467 48.157833 -8.515164
108.541130 49.157833 -9.515163
108.438713 48.157833 -9.515163
108.010307 47.157833 -8.515164
107.884453 46.157833 -8.515164
108.319633 47.157833 -9.515163
108.195000 46.157833 -9.515163
107.332939 47.157833 -6.515164
107.192436 46.157833 -6.515164
109.097466 53.157833 -10.515163
109.029350 52.157833 -10.515163
109.312859 53.157833 -11.515163
109.244194 52.157833 -11.515163
108.965324 51.157833 -10.515163
108.896538 50.157833 -10.515163
109.187798 51.157833 -11.515163
109.131035 50.157833 -11.515163
109.542778 53.611141 -12.515163
109.675591 53.157833 -13.515163
109.508232 53.157833 -12.515163
109.542778 52.157833 -13.146389
109.599419 52.157833 -13.515163
109.436211 52.157833 -12.515163
109.542778 51.157833 -13.504696
109.381340 51.157833 -12.515163
109.327019 50.157833 -12.515163
109.493889 50.157833 -13.515163
108.812737 49.157833 -10.515163
108.542778 48.157833 -9.908566
108.714104 48.157833 -10.515163
109.054314 49.157833 -11.515163
108.960075 48.157833 -11.515163
108.542778 47.157833 -10.324154
108.542778 46.732296 -10.515163
108.476982 46.157833 -10.515163
108.850151 47.157833 -11.515163
108.733696 46.157833 -11.515163
108.542778 46.157833 -10.750179
109.253838 49.157833 -12.515163
109.167595 48.157833 -12.515163
109.424980 49.157833 -13.515163
109.342949 48.157833 -13.515163
109.069756 47.157833 -12.515163
108.967155 46.157833 -12.515163
109.249870 47.157833 -13.515163
109.161308 46.157833 -13.515163
107.542778 45.157833 -7.897213
107.759575 45.157833 -8.515164
107.542778 44.157833 -8.285825
107.627678 44.157833 -8.515164
108.072441 45.157833 -9.515163
107.950737 44.157833 -9.515163
107.542778 43.483089 -8.515164
107.836235 43.157833 -9.515163
107.500542 43.157833 -8.515164
107.542778 42.157833 -8.955472
107.726921 42.157833 -9.515163
107.048637 45.157833 -6.515164
106.894157 44.157833 -6.515164
107.415459 45.157833 -7.515164
107.277580 44.157833 -7.515164
106.542778 43.157833 -6.081845
106.733879 43.157833 -6.515164
106.542778 42.157833 -6.445889
107.137810 43.157833 -7.515164
106.996269 42.157833 -7.515164
107.378227 42.157833 -8.515164
107.542778 41.157833 -9.283811
107.621452 41.157833 -9.515163
107.537407 40.157833 -9.515163
106.542778 41.941830 -6.515164
106.415398 41.157833 -6.515164
106.258659 40.157833 -6.515164
106.542778 41.157833 -6.794583
106.849541 41.157833 -7.515164
106.542778 40.157833 -7.131742
106.708244 40.157833 -7.515164
106.103325 39.157833 -6.515164
105.948051 38.157837 -6.515164
105.542778 38.157837 -5.718839
106.542778 39.157833 -7.441922
106.542778 38.926937 -7.515164
106.449699 38.157837 -7.515164
107.255547 41.157833 -8.515164
107.146111 40.157833 -8.515164
107.043755 39.157833 -8.515164
106.938957 38.157837 -8.515164
106.542778 38.157837 -7.714810
107.467278 39.157833 -9.515163
107.389885 38.157837 -9.515163
108.358757 45.157833 -10.515163
108.244072 44.157833 -10.515163
108.542778 45.157833 -11.182400
108.624199 45.157833 -11.515163
108.542778 44.394283 -11.515163
108.520988 44.157833 -11.515163
108.139580 43.157833 -10.515163
108.050102 42.157833 -10.515163
108.435417 43.157833 -11.515163
108.372551 42.157833 -11.515163
108.873039 45.157833 -12.515163
108.788139 44.157833 -12.515163
109.089592 45.157833 -13.515163
109.032341 44.157833 -13.515163
108.542778 43.157833 -11.905819
108.726006 43.157833 -12.515163
108.542778 42.157833 -12.069881
108.689934 42.157833 -12.515163
108.999870 43.157833 -13.515163
108.990959 42.157833 -13.515163
107.971977 41.157833 -10.515163
107.912590 40.157833 -10.515163
108.320366 41.157833 -11.515163
108.279655 40.157833 -11.515163
107.542778 39.157833 -9.715816
107.861443 39.157833 -10.515163
107.542778 38.157837 -9.899014
107.800652 38.157837 -10.515163
108.239799 39.157833 -11.515163
108.187370 38.157837 -11.515163
108.542778 41.157833 -12.184933
108.659477 41.157833 -12.515163
108.542778 40.157833 -12.267696
108.634941 40.157833 -12.515163
108.980827 41.157833 -13.515163
108.967888 40.157833 -13.515163
108.542778 39.157833 -12.355404
108.542778 38.157837 -12.470303
108.948112 39.157833 -13.515163
108.926445 38.157837 -13.515163
103.542778 37.157837 -2.293119
103.664787 37.157837 -2.515165
103.542778 36.613220 -2.515165
104.198906 37.157837 -3.515165
103.984917 36.157837 -3.515165
103.448845 36.157837 -2.515165
103.542778 35.157837 -3.065732
103.780388 35.157837 -3.515165
103.542778 34.157837 -3.439054
104.542778 37.157837 -4.154538
104.744987 37.157837 -4.515164
104.542778 36.157837 -4.491208
105.287712 37.157837 -5.515164
105.125298 36.157837 -5.515164
104.360222 35.157837 -4.515164
104.161125 34.157837 -4.515164
104.542778 35.157837 -4.809995
104.945000 35.157837 -5.515164
104.542778 34.157837 -5.130002
104.761650 34.157837 -5.515164
103.542778 33.945068 -3.515165
103.542778 33.157837 -3.832029
103.948540 33.157837 -4.515164
103.542778 32.157837 -4.208158
103.729912 32.157837 -4.515164
104.542778 33.157837 -5.475186
104.344963 32.157837 -5.515164
103.503227 31.157835 -4.515164
104.101311 31.157835 -5.515164
103.542778 30.157837 -5.010343
103.821831 30.157837 -5.515164
103.521843 29.157837 -5.515164
105.542778 37.157837 -6.021024
105.804741 37.157837 -6.515164
105.542778 36.157837 -6.293454
105.663872 36.157837 -6.515164
106.327385 37.157837 -7.515164
106.197258 36.157837 -7.515164
105.542778 35.371765 -6.515164
106.055717 35.157837 -7.515164
105.508171 35.157837 -6.515164
105.542778 34.157837 -6.849942
105.912895 34.157837 -7.515164
105.352348 34.157837 -6.515164
106.542778 37.157837 -7.953000
106.832634 37.157837 -8.515164
106.542778 36.157837 -8.188718
106.715569 36.157837 -8.515164
107.308403 37.157837 -9.515163
107.211296 36.157837 -9.515163
106.542778 35.157837 -8.433255
106.542778 34.819397 -8.515164
106.463737 34.157837 -8.515164
107.105705 35.157837 -9.515163
107.003288 34.157837 -9.515163
105.542778 33.157837 -7.146665
105.748528 33.157837 -7.515164
105.542778 32.157837 -7.488156
105.173637 33.157837 -6.515164
104.542778 32.157837 -5.848355
104.965263 32.157837 -6.515164
104.542778 31.157835 -6.230527
104.730095 31.157835 -6.515164
104.542778 30.498289 -6.515164
104.447990 30.157837 -6.515164
105.345268 31.157835 -7.515164
105.075493 30.157837 -7.515164
106.312981 33.157837 -8.515164
106.126152 32.157837 -8.515164
106.542778 33.157837 -8.911862
106.862846 33.157837 -9.515163
106.542778 32.157837 -9.249051
106.680901 32.157837 -9.515163
105.542778 31.157835 -7.862668
105.923454 31.157835 -8.515164
105.542778 30.157837 -8.286374
105.679680 30.157837 -8.515164
106.542778 31.397398 -9.515163
106.493584 31.157835 -9.515163
106.266594 30.157837 -9.515163
107.542778 37.157837 -10.077755
107.733696 37.157837 -10.515163
107.542778 36.157837 -10.273830
107.652519 36.157837 -10.515163
108.134331 37.157837 -11.515163
108.074516 36.157837 -11.515163
107.542778 35.157837 -10.458096
108.013725 35.157837 -11.515163
107.542778 34.804321 -10.515163
107.954643 34.157837 -11.515163
107.493584 34.157837 -10.515163
108.542778 37.570190 -12.515163
108.529961 37.157837 -12.515163
108.500114 36.157837 -12.515163
108.925346 37.157837 -13.515163
108.929985 36.157837 -13.515163
108.465141 35.157837 -12.515163
108.429680 34.157837 -12.515163
108.929375 35.157837 -13.515163
108.542778 34.157837 -12.731594
108.919853 34.157837 -13.515163
107.542778 33.157837 -10.834957
107.866570 33.157837 -11.515163
107.542778 32.157837 -11.087337
107.756828 32.157837 -11.515163
107.542778 31.157835 -11.360714
108.371758 33.157837 -12.515163
108.294426 32.157837 -12.515163
108.542778 33.157837 -12.833340
108.881157 33.157837 -13.515163
108.542778 32.157837 -12.963558
108.819572 32.157837 -13.515163
108.179680 31.157835 -12.515163
107.542778 30.720396 -11.515163
108.008232 30.157837 -12.515163
107.542778 30.157837 -11.711910
108.542778 31.157835 -13.157497
108.723076 31.157835 -13.515163
108.542778 30.157837 -13.444363
107.380547 33.157837 -10.515163
107.233269 32.157837 -10.515163
107.068901 31.157835 -10.515163
106.542778 30.157837 -10.005917
106.852654 30.157837 -10.515163
107.437492 30.157837 -11.515163
104.114616 29.157837 -6.515164
103.542778 28.157837 -6.145139
103.763176 28.157837 -6.515164
104.542778 29.157837 -7.176023
104.749809 29.157837 -7.515164
104.542778 28.609497 -7.515164
104.366264 28.157837 -7.515164
103.542778 27.522400 -6.515164
103.947441 27.157837 -7.515164
103.542778 27.157837 -6.760098
103.542778 26.157837 -7.459531
103.542778 26.071594 -7.515164
105.542778 29.660034 -8.515164
105.961418 29.157837 -9.515163
105.542778 29.157837 -8.792600
105.542778 28.052063 -9.515163
105.586662 28.157837 -9.515163
105.374016 29.157837 -8.515164
104.980217 28.157837 -8.515164
104.542778 28.157837 -7.813168
104.532707 27.157837 -8.515164
104.125542 26.157837 -8.515164
105.145500 27.157837 -9.515163
104.542778 26.157837 -9.213864
104.713554 26.157837 -9.515163
103.542778 25.157837 -8.163541
103.738274 25.157837 -8.515164
103.542778 24.685669 -8.515164
104.542778 25.714050 -9.515163
104.296013 25.157837 -9.515163
103.862907 24.157837 -9.515163
103.542778 24.157837 -8.898587
103.542778 23.421631 -9.515163
107.542778 29.157837 -12.098843
107.794670 29.157837 -12.515163
107.519096 28.157837 -12.515163
108.542778 29.921875 -13.515163
108.388298 29.157837 -13.515163
108.123589 28.157837 -13.515163
107.542778 27.157837 -13.075649
107.807426 27.157837 -13.515163
107.542778 26.447632 -13.515163
106.542778 29.157837 -10.469936
106.215691 28.157837 -10.515163
107.198723 29.157837 -11.515163
106.542778 28.157837 -11.001186
106.871941 28.157837 -11.515163
105.542778 27.157837 -10.159481
105.780876 27.157837 -10.515163
105.542778 26.635620 -10.515163
106.468132 27.157837 -11.515163
106.017326 26.157837 -11.515163
105.542778 26.157837 -10.823483
105.338737 26.157837 -10.515163
107.161674 27.157837 -12.515163
106.542778 26.157837 -12.269436
106.720879 26.157837 -12.515163
107.428337 26.157837 -13.515163
105.528313 25.157837 -11.515163
104.884209 25.157837 -10.515163
104.542778 25.157837 -9.964474
104.542778 24.398987 -10.515163
104.444450 24.157837 -10.515163
105.065605 24.157837 -11.515163
103.973991 23.157837 -10.515163
103.542778 23.157837 -9.761562
103.472771 22.157837 -10.515163
104.542778 23.157837 -11.454281
104.021049 22.157837 -11.515163
106.542778 25.770447 -12.515163
106.220268 25.157837 -12.515163
105.542778 24.157837 -12.265835
105.709587 24.157837 -12.515163
106.934135 25.157837 -13.515163
106.542778 25.157837 -12.958492
106.542778 24.443054 -13.515163
106.390678 24.157837 -13.515163
105.542778 23.821716 -12.515163
105.542778 23.157837 -13.071377
105.818474 23.157837 -13.515163
105.542778 22.728577 -13.515163
105.198662 23.157837 -12.515163
104.542778 22.157837 -12.421352
105.170586 22.157837 -13.515163
103.542778 85.933952 -14.515163
103.861259 85.157829 -14.515163
104.261284 84.157829 -14.515163
103.542778 85.775139 -15.515163
103.795952 85.157829 -15.515163
104.186577 84.157829 -15.515163
104.542778 83.399223 -14.515163
104.636162 83.157829 -14.515163
104.978996 82.157829 -14.515163
104.542778 83.157829 -15.611141
104.879143 82.157829 -15.515163
103.542778 85.630730 -16.515163
103.734489 85.157829 -16.515163
104.110954 84.157829 -16.515163
103.542778 85.485527 -17.515163
103.674980 85.157829 -17.515163
104.039787 84.157829 -17.515163
104.463493 83.157829 -16.515163
104.542778 82.932121 -16.515163
104.776421 82.157829 -16.515163
104.377617 83.157829 -17.515163
104.542778 82.644463 -17.515163
104.676201 82.157829 -17.515163
105.542778 80.157829 -14.122158
105.270439 81.157829 -14.515163
105.498405 80.157829 -14.515163
105.163383 81.157829 -15.515163
105.387871 80.157829 -15.515163
105.705193 79.157829 -14.515163
105.542778 79.943108 -14.515163
105.882439 78.157829 -14.515163
105.542778 79.365776 -15.515163
105.584404 79.157829 -15.515163
105.768913 78.157829 -15.515163
105.051689 81.157829 -16.515163
105.275932 80.157829 -16.515163
104.943108 81.157829 -17.515163
105.168755 80.157829 -17.515163
105.542778 79.157829 -15.860287
105.542778 78.793999 -16.515163
105.664604 78.157829 -16.515163
105.576042 78.157829 -17.515163
105.470146 79.157829 -16.515163
105.370903 79.157829 -17.515163
103.542778 85.349724 -18.515163
103.619499 85.157829 -18.515163
103.975090 84.157829 -18.515163
103.542778 85.176994 -19.515163
103.542778 85.157829 -19.613155
103.893730 84.157829 -19.515163
104.299858 83.157829 -18.515163
104.584343 82.157829 -18.515163
104.206230 83.157829 -19.515163
104.542778 82.157829 -18.911221
104.483574 82.157829 -19.515163
103.542778 84.945061 -20.515163
103.793999 84.157829 -20.515163
103.542778 84.681328 -21.515163
103.701530 84.157829 -21.515163
104.094841 83.157829 -20.515163
104.372795 82.157829 -20.515163
103.999931 83.157829 -21.515163
104.285271 82.157829 -21.515163
104.840691 81.157829 -18.515163
105.070976 80.157829 -18.515163
104.735893 81.157829 -19.515163
104.542778 81.906059 -19.515163
104.980095 80.157829 -19.515163
105.289421 79.157829 -18.515163
105.542778 78.157829 -17.994869
105.542778 78.031731 -18.515163
105.226921 79.157829 -19.515163
105.489128 78.157829 -19.515163
104.542778 81.486198 -20.515163
104.636040 81.157829 -20.515163
104.908318 80.157829 -20.515163
104.570854 81.157829 -21.515163
104.882256 80.157829 -21.515163
105.195610 79.157829 -20.515163
105.542778 78.025749 -20.515163
105.216484 79.157829 -21.515163
105.542778 78.157829 -21.182583
105.573174 78.157829 -21.515163
106.040459 77.157829 -14.515163
106.212700 76.157829 -14.515163
105.942558 77.157829 -15.515163
106.140617 76.157829 -15.515163
106.407585 75.157829 -14.515163
106.542778 74.572685 -14.515163
106.643242 74.157829 -14.515163
106.368462 75.157829 -15.515163
106.542778 74.493584 -15.515163
106.633476 74.157829 -15.515163
105.863335 77.157829 -16.515163
106.094719 76.157829 -16.515163
105.809074 77.157829 -17.515163
106.081596 76.157829 -17.515163
106.362663 75.157829 -16.515163
106.662041 74.157829 -16.515163
106.542778 74.557793 -16.515163
106.392021 75.157829 -17.515163
106.729118 74.157829 -17.515163
106.542778 74.716362 -17.515163
107.738213 70.157829 -14.515163
107.542778 70.911613 -14.515163
107.826469 70.157829 -15.515163
107.542778 71.154533 -15.515163
107.542778 71.416069 -16.515163
107.542778 71.157829 -15.530819
107.626335 71.157829 -16.515163
107.925529 70.157829 -16.515163
107.729546 71.157829 -17.515163
107.542778 71.731377 -17.515163
108.039665 70.157829 -17.515163
106.925041 73.157829 -14.515163
107.205009 72.157829 -14.515163
106.947624 73.157829 -15.515163
107.255974 72.157829 -15.515163
107.472771 71.157829 -14.515163
107.001823 73.157829 -16.515163
107.326469 72.157829 -16.515163
107.088310 73.157829 -17.515163
107.417656 72.157829 -17.515163
105.785332 77.157829 -18.515163
106.103325 76.157829 -18.515163
105.542778 77.952812 -19.515163
105.801506 77.157829 -19.515163
106.165459 76.157829 -19.515163
106.454765 75.157829 -18.515163
106.826591 74.157829 -18.515163
106.542778 74.928459 -18.515163
106.542778 75.157829 -19.395565
106.952690 74.157829 -19.515163
105.861137 77.157829 -20.515163
106.265312 76.157829 -20.515163
105.981133 77.157829 -21.515163
106.415520 76.157829 -21.515163
106.689018 75.157829 -20.515163
106.542778 75.485283 -20.515163
107.098564 74.157829 -20.515163
106.857231 75.157829 -21.515163
106.542778 75.852043 -21.515163
107.261528 74.157829 -21.515163
107.542778 72.561211 -19.515163
107.529778 72.157829 -18.515163
107.671257 72.157829 -19.515163
107.850151 71.157829 -18.515163
108.163017 70.157829 -18.515163
107.988091 71.157829 -19.515163
108.297234 70.157829 -19.515163
107.818718 72.157829 -20.515163
107.542778 72.974113 -20.515163
107.542778 73.372429 -21.515163
107.542778 73.157829 -20.968655
107.626274 73.157829 -21.515163
107.969231 72.157829 -21.515163
108.132317 71.157829 -20.515163
108.438957 70.157829 -20.515163
108.284538 71.157829 -21.515163
108.542778 70.157829 -21.200802
108.587639 70.157829 -21.515163
107.199272 73.157829 -18.515163
107.330498 73.157829 -19.515163
103.542778 84.465630 -22.515162
103.635735 84.157829 -22.515162
103.542778 84.381096 -23.515162
103.613396 84.157829 -23.515162
103.943108 83.157829 -22.515162
104.247185 82.157829 -22.515162
103.942253 83.157829 -23.515162
104.278130 82.157829 -23.515162
103.629997 84.157829 -24.515162
103.542778 84.412773 -24.515162
103.674065 84.157829 -25.515162
103.542778 84.502190 -25.515162
103.991692 83.157829 -24.515162
104.376945 82.157829 -24.515162
104.089531 83.157829 -25.515162
104.542778 82.157829 -25.508478
104.566887 81.157829 -22.515162
104.927483 80.157829 -22.515162
104.643791 81.157829 -23.515162
104.542778 81.398247 -23.515162
105.064873 80.157829 -23.515162
105.726738 78.157829 -22.515162
105.542778 78.591667 -22.515162
105.956108 78.157829 -23.515162
105.542778 79.052299 -23.515162
105.311882 79.157829 -22.515162
104.806389 81.157829 -24.515162
104.542778 81.726860 -24.515162
105.286186 80.157829 -24.515162
105.044975 81.157829 -25.515162
105.542778 80.157829 -25.440851
105.542778 79.605400 -24.515162
105.542778 79.157829 -23.729792
105.757378 79.157829 -24.515162
106.235283 78.157829 -24.515162
106.075127 79.157829 -25.515162
106.542778 78.175957 -25.515162
103.760551 84.157829 -26.515162
103.542778 84.654778 -26.515162
103.915337 84.157829 -27.515162
103.542778 84.887444 -27.515162
104.249748 83.157829 -26.515162
104.781487 82.157829 -26.515162
104.542778 82.620842 -26.515162
104.542778 83.070122 -27.515162
105.089897 82.157829 -27.515162
104.160210 84.157829 -28.515162
103.542778 85.157829 -28.436060
103.814323 85.157829 -29.515162
103.542778 85.543327 -29.515162
104.542778 84.157829 -29.610743
105.542778 82.740654 -29.515162
105.542778 82.033440 -28.515162
105.919975 82.157829 -29.515162
104.542778 83.548759 -28.515162
104.542778 83.157829 -27.725367
104.814201 83.157829 -28.515162
105.243401 83.157829 -29.515162
104.542778 84.106743 -29.515162
107.991814 78.157829 -29.515162
107.542778 79.252495 -29.515162
107.542778 78.285759 -28.515162
105.892509 80.157829 -26.515162
105.542778 80.783928 -26.515162
105.542778 81.373528 -27.515162
105.542778 81.157829 -27.153986
105.674431 81.157829 -27.515162
106.258965 80.157829 -27.515162
105.335564 81.157829 -26.515162
106.416130 79.157829 -26.515162
106.887810 78.157829 -26.515162
106.542778 78.909966 -26.515162
106.542778 79.614922 -27.515162
106.542778 79.157829 -26.863672
106.776115 79.157829 -27.515162
107.234917 78.157829 -27.515162
106.082207 81.157829 -28.515162
106.542778 80.378410 -28.515162
106.542778 80.157829 -28.241693
106.663933 80.157829 -28.515162
106.542778 81.157829 -29.539392
107.113762 80.157829 -29.515162
106.542778 81.141289 -29.515162
107.172966 79.157829 -28.515162
107.542778 74.453178 -23.515162
107.542778 74.157829 -23.015894
107.638664 74.157829 -23.515162
107.847588 74.157829 -24.515162
107.542778 75.051323 -24.515162
107.542778 75.704277 -25.515162
107.542778 75.157829 -24.682276
107.744133 75.157829 -25.515162
108.083794 74.157829 -25.515162
106.179070 77.157829 -22.515162
106.542778 76.349541 -22.515162
106.542778 76.157829 -22.181360
106.624443 76.157829 -22.515162
106.425774 77.157829 -23.515162
106.869560 76.157829 -23.515162
106.542778 76.909538 -23.515162
107.063103 75.157829 -22.515162
107.444817 74.157829 -22.515162
107.282707 75.157829 -23.515162
106.542778 77.474174 -24.515162
106.542778 77.157829 -23.992456
106.694817 77.157829 -24.515162
107.125603 76.157829 -24.515162
107.000237 77.157829 -25.515162
107.388603 76.157829 -25.515162
107.794121 73.157829 -22.515162
107.542778 73.861015 -22.515162
108.127922 72.157829 -22.515162
107.972404 73.157829 -23.515162
108.302605 72.157829 -23.515162
108.446037 71.157829 -22.515162
108.751030 70.157829 -22.515162
108.542778 70.865654 -22.515162
108.542778 71.378105 -23.515162
108.542778 71.157829 -23.076685
108.615410 71.157829 -23.515162
108.921867 70.157829 -23.515162
108.176506 73.157829 -24.515162
108.542778 72.157829 -24.678949
108.411674 73.157829 -25.515162
108.542778 72.771049 -25.515162
108.732964 72.157829 -25.515162
108.812431 71.157829 -24.515162
108.542778 72.025993 -24.515162
109.106010 70.157829 -24.515162
109.029594 71.157829 -25.515162
109.300285 70.157829 -25.515162
107.542778 76.535332 -26.515162
107.542778 76.157829 -26.103846
107.670158 76.157829 -26.515162
107.542778 77.366997 -27.515162
107.542778 77.157829 -27.246180
107.627922 77.157829 -27.515162
107.992302 76.157829 -27.515162
108.021904 75.157829 -26.515162
108.360710 74.157829 -26.515162
108.349113 75.157829 -27.515162
108.542778 74.601128 -27.515162
108.542778 74.157829 -27.084497
108.678886 74.157829 -27.515162
107.982536 77.157829 -28.515162
108.349541 76.157829 -28.515162
108.374138 77.157829 -29.515162
108.542778 76.702446 -29.515162
108.542778 76.157829 -29.012995
108.730888 76.157829 -29.515162
108.542778 75.591911 -28.515162
108.542778 75.157829 -28.095819
108.702324 75.157829 -28.515162
109.033440 74.157829 -28.515162
109.091911 75.157829 -29.515162
109.418022 74.157829 -29.515162
107.310051 77.157829 -26.515162
108.542778 73.559807 -26.515162
108.542778 73.157829 -26.056116
108.676628 73.157829 -26.515162
108.988213 72.157829 -26.515162
108.984184 73.157829 -27.515162
109.272026 72.157829 -27.515162
109.542778 71.087639 -27.515162
109.542778 70.157829 -26.655603
109.778008 70.157829 -27.515162
109.263969 71.157829 -26.515162
109.542778 73.713676 -29.515162
109.542778 73.157829 -29.100275
109.710686 73.157829 -29.515162
109.542778 72.335503 -28.515162
109.998833 72.157829 -29.515162
109.542778 72.157829 -28.381281
109.322746 73.157829 -28.515162
109.859917 71.157829 -28.515162
110.108208 70.157829 -28.515162
110.274895 71.157829 -29.515162
110.542778 70.032219 -29.515162
107.986809 69.157829 -14.515163
108.232414 68.157829 -14.515163
108.093010 69.157829 -15.515163
108.352715 68.157829 -15.515163
108.468193 67.157829 -14.515163
108.685417 66.157829 -14.515163
108.542778 66.841972 -14.515163
108.542778 67.377556 -15.515163
108.542778 67.157829 -15.068752
108.599602 67.157829 -15.515163
108.824089 66.157829 -15.515163
108.212517 69.157829 -16.515163
108.480583 68.157829 -16.515163
108.335442 69.157829 -17.515163
108.542778 68.412224 -17.515163
108.542778 68.157829 -16.979519
108.605339 68.157829 -17.515163
108.736076 67.157829 -16.515163
108.542778 67.901543 -16.515163
108.965141 66.157829 -16.515163
108.859489 67.157829 -17.515163
109.083427 66.157829 -17.515163
108.897087 65.157829 -14.515163
109.103630 64.157829 -14.515163
109.031364 65.157829 -15.515163
109.231499 64.157829 -15.515163
109.542778 62.535641 -15.515163
109.542778 62.157833 -14.997280
109.606987 62.157833 -15.515163
109.302910 63.157833 -14.515163
109.480705 62.157833 -14.515163
109.425957 63.157833 -15.515163
109.164970 65.157829 -16.515163
109.353874 64.157829 -16.515163
109.277580 65.157829 -17.515163
109.460869 64.157829 -17.515163
109.711540 62.157833 -16.515163
109.536552 63.157833 -16.515163
109.542778 63.698788 -17.515163
109.641716 63.157833 -17.515163
109.803032 62.157833 -17.515163
108.454094 69.157829 -18.515163
108.717400 68.157829 -18.515163
108.542778 68.847404 -18.515163
108.542778 69.157829 -19.216091
108.578239 69.157829 -19.515163
108.828667 68.157829 -19.515163
108.959160 67.157829 -18.515163
109.171074 66.157829 -18.515163
109.051567 67.157829 -19.515163
109.249687 66.157829 -19.515163
108.715813 69.157829 -20.515163
108.542778 69.770683 -20.515163
108.956108 68.157829 -20.515163
108.867241 69.157829 -21.515163
109.104729 68.157829 -21.515163
109.163506 67.157829 -20.515163
109.349297 66.157829 -20.515163
109.301933 67.157829 -21.515163
109.474236 66.157829 -21.515163
109.639702 64.157829 -19.515163
109.542778 64.638054 -19.515163
109.542778 64.200554 -18.515163
109.363152 65.157829 -18.515163
109.440666 65.157829 -19.515163
109.734856 63.157833 -18.515163
109.890617 62.157833 -18.515163
109.822075 63.157833 -19.515163
109.975029 62.157833 -19.515163
109.738762 64.157829 -20.515163
109.542778 65.129936 -20.515163
109.542778 65.758965 -21.515163
109.542778 65.157829 -20.563168
109.662590 65.157829 -21.515163
109.851189 64.157829 -21.515163
109.913445 63.157833 -20.515163
110.062065 62.157833 -20.515163
110.010674 63.157833 -21.515163
110.149223 62.157833 -21.515163
109.542778 61.729305 -14.515163
109.542778 61.157833 -13.960598
109.625969 61.157833 -14.515163
109.736931 60.157833 -14.515163
109.749870 61.157833 -15.515163
109.848320 60.157833 -15.515163
109.819878 59.157833 -14.515163
109.880180 58.157833 -14.515163
109.920647 59.157833 -15.515163
109.974174 58.157833 -15.515163
109.847282 61.157833 -16.515163
109.941521 60.157833 -16.515163
109.931206 61.157833 -17.515163
110.025078 60.157833 -17.515163
110.009880 59.157833 -16.515163
110.056572 58.157833 -16.515163
110.094963 59.157833 -17.515163
110.140739 58.157833 -17.515163
109.919975 57.157833 -14.515163
109.936394 56.157833 -14.515163
110.008232 57.157833 -15.515163
110.021782 56.157833 -15.515163
109.918877 55.157833 -14.515163
109.875114 54.157833 -14.515163
110.004997 55.157833 -15.515163
109.970940 54.157833 -15.515163
110.085625 57.157833 -16.515163
110.098442 56.157833 -16.515163
110.168022 57.157833 -17.515163
110.179802 56.157833 -17.515163
110.085930 55.157833 -16.515163
110.060417 54.157833 -16.515163
110.169182 55.157833 -17.515163
110.144402 54.157833 -17.515163
110.015129 61.157833 -18.515163
110.108452 60.157833 -18.515163
110.097221 61.157833 -19.515163
110.187737 60.157833 -19.515163
110.178642 59.157833 -18.515163
110.223686 58.157833 -18.515163
110.253716 59.157833 -19.515163
110.293633 58.157833 -19.515163
110.178703 61.157833 -20.515163
110.260124 60.157833 -20.515163
110.260002 61.157833 -21.515163
110.332085 60.157833 -21.515163
110.317314 59.157833 -20.515163
110.348930 58.157833 -20.515163
110.380058 59.157833 -21.515163
110.400993 58.157833 -21.515163
110.248466 57.157833 -18.515163
110.259880 56.157833 -18.515163
110.314445 57.157833 -19.515163
110.325310 56.157833 -19.515163
110.249870 55.157833 -18.515163
110.218376 54.157833 -18.515163
110.313225 55.157833 -19.515163
110.272820 54.157833 -19.515163
110.365105 57.157833 -20.515163
110.371635 56.157833 -20.515163
110.405815 57.157833 -21.515163
110.402580 56.157833 -21.515163
110.352470 55.157833 -20.515163
110.309502 54.157833 -20.515163
110.376335 55.157833 -21.515163
110.335442 54.157833 -21.515163
109.030571 69.157829 -22.515162
109.264641 68.157829 -22.515162
109.198479 69.157829 -23.515162
109.424248 68.157829 -23.515162
109.542778 66.671928 -22.515162
109.542778 66.157829 -22.016809
109.628838 66.157829 -22.515162
109.542778 67.562004 -23.515162
109.542778 67.157829 -23.033747
109.625786 67.157829 -23.515162
109.806023 66.157829 -23.515162
109.458305 67.157829 -22.515162
109.542778 68.375969 -24.515162
109.542778 68.157829 -24.252802
109.589958 68.157829 -24.515162
109.772514 68.157829 -25.515162
109.542778 69.157829 -25.498438
109.369865 69.157829 -24.515162
109.800957 67.157829 -24.515162
109.987785 66.157829 -24.515162
109.985649 67.157829 -25.515162
110.175896 66.157829 -25.515162
109.806145 65.157829 -22.515162
109.978081 64.157829 -22.515162
109.971245 65.157829 -23.515162
110.120903 64.157829 -23.515162
110.115959 63.157833 -22.515162
110.234306 62.157833 -22.515162
110.230339 63.157833 -23.515162
110.322929 62.157833 -23.515162
110.144279 65.157829 -24.515162
110.272636 64.157829 -24.515162
110.323479 65.157829 -25.515162
110.432060 64.157829 -25.515162
110.360039 63.157833 -24.515162
110.428459 62.157833 -24.515162
110.500603 63.157833 -25.515162
110.542778 62.247128 -25.515162
109.756279 69.157829 -26.515162
109.542778 70.013359 -26.515162
109.974846 68.157829 -26.515162
110.013237 69.157829 -27.515162
110.221672 68.157829 -27.515162
110.186394 67.157829 -26.515162
110.368706 66.157829 -26.515162
110.415764 67.157829 -27.515162
110.542778 66.403496 -27.515162
110.542778 66.157829 -27.357538
110.337761 69.157829 -28.515162
110.542778 68.061699 -28.515162
110.542778 69.157829 -29.029688
110.739922 69.157829 -29.515162
110.914177 68.157829 -29.515162
110.542778 67.157829 -28.024805
110.695732 67.157829 -28.515162
110.827263 66.157829 -28.515162
111.038933 67.157829 -29.515162
111.125175 66.157829 -29.515162
110.501030 65.157829 -26.515162
110.542778 64.770073 -26.515162
110.542778 64.157829 -26.235987
110.594414 64.157829 -26.515162
110.542778 65.157829 -26.735041
110.692070 65.157829 -27.515162
110.768913 64.157829 -27.515162
110.542778 63.157833 -25.842249
110.647942 63.157833 -26.515162
110.674736 62.157833 -26.515162
110.801811 63.157833 -27.515162
110.805717 62.157833 -27.515162
110.910759 65.157829 -28.515162
110.964592 64.157829 -28.515162
111.174065 65.157829 -29.515162
111.197807 64.157829 -29.515162
110.981255 63.157833 -28.515162
110.959099 62.157833 -28.515162
111.191948 63.157833 -29.515162
111.144646 62.157833 -29.515162
110.334953 61.157833 -22.515162
110.399223 60.157833 -22.515162
110.408195 61.157833 -23.515162
110.462212 60.157833 -23.515162
110.441521 59.157833 -22.515162
110.455864 58.157833 -22.515162
110.496147 59.157833 -23.515162
110.498894 58.157833 -23.515162
110.489128 61.157833 -24.515162
110.523491 60.157833 -24.515162
110.542778 61.157833 -25.129663
