42.063232 17.341309 59.075073
42.358582 17.341309 58.942200
42.324341 18.341309 59.075073
41.358582 17.341309 59.395752
41.358582 18.341309 59.526123
39.358582 17.341309 60.211548
39.358582 18.341309 60.354248
43.358582 16.341309 58.282898
43.358582 17.341309 58.424744
43.358582 18.341309 58.519775
40.334900 19.341309 60.075073
41.358582 19.341309 59.627380
42.358582 18.553772 59.075073
42.358582 19.341309 59.131104
40.577362 20.341309 60.075073
41.358582 20.341309 59.716614
42.358582 20.341309 59.194824
40.757019 21.341309 60.075073
41.358582 21.341309 59.782349
42.358582 21.341309 59.245117
40.867767 22.341309 60.075073
41.358582 22.341309 59.828491
42.358582 22.341309 59.296387
39.358582 19.341309 60.470398
39.358582 20.341309 60.570313
40.358582 20.341309 60.166077
39.358582 21.341309 60.669067
40.358582 21.341309 60.251831
38.591949 22.341309 61.075073
39.358582 22.341309 60.757629
40.358582 22.341309 60.313171
43.358582 19.341309 58.570923
42.587219 20.341309 59.075073
43.358582 20.341309 58.613953
42.678284 21.341309 59.075073
43.358582 21.341309 58.667969
42.785065 22.341309 59.075073
43.358582 22.341309 58.744812
44.358582 22.341309 58.193542
36.336243 23.341309 62.075073
37.358582 23.341309 61.642090
38.358582 23.341309 61.230347
37.358582 24.341309 61.678467
36.358582 24.341309 62.119019
38.358582 24.341309 61.249939
36.358582 25.341309 62.137024
37.358582 25.341309 61.686157
38.358582 25.341309 61.255432
37.358582 26.341309 61.710205
36.555237 26.341309 62.075073
38.358582 26.341309 61.286621
36.669861 27.341309 62.075073
37.358582 27.341309 61.765930
38.358582 27.341309 61.344421
36.801208 28.341309 62.075073
37.358582 28.341309 61.820129
38.358582 28.341309 61.388733
36.876465 29.341309 62.075073
37.358582 29.341309 61.847046
38.358582 29.341309 61.403748
36.915466 30.341309 62.075073
37.358582 30.341309 61.863770
38.358582 30.341309 61.411743
31.358582 23.341309 63.851318
30.775543 23.341309 64.075073
32.358582 23.341309 63.524414
31.358582 24.341309 63.852905
30.645721 24.341309 64.075073
32.358582 24.341309 63.584412
33.774445 23.341309 63.075073
34.358582 23.341309 62.885132
34.057129 24.341309 63.075073
34.358582 24.341309 62.975586
33.358582 23.341309 63.216003
33.358582 24.341309 63.304199
31.358582 25.341309 63.836548
32.358582 25.341309 63.603882
31.358582 26.341309 63.832275
32.358582 26.341309 63.619751
34.193390 25.341309 63.075073
33.358582 25.341309 63.341370
33.358582 26.341309 63.372314
34.316284 26.341309 63.075073
35.358582 23.341309 62.493591
35.358582 24.341309 62.565613
35.358582 25.341309 62.602112
35.358582 26.341309 62.639160
36.358582 26.341309 62.160583
31.358582 27.341309 63.861511
32.358582 27.341309 63.647827
30.738831 28.341309 64.075073
31.358582 28.341309 63.928711
32.358582 28.341309 63.695435
33.358582 27.341309 63.408508
34.358582 26.672546 63.075073
34.358582 27.341309 63.107971
33.358582 28.341309 63.453613
34.358582 28.341309 63.157959
31.107635 29.341309 64.075073
31.358582 29.341309 64.009888
32.358582 29.341309 63.771729
31.358582 30.000305 64.075073
32.358582 30.341309 63.881287
31.358582 30.341309 64.109558
33.358582 29.341309 63.527222
34.358582 29.341309 63.218079
33.358582 30.341309 63.619080
34.358582 30.341309 63.268311
35.358582 27.341309 62.689941
36.358582 27.341309 62.210876
34.604279 28.341309 63.075073
35.358582 28.341309 62.751709
36.358582 28.341309 62.272888
34.755341 29.341309 63.075073
35.358582 29.341309 62.804199
36.358582 29.341309 62.313721
34.840851 30.341309 63.075073
35.358582 30.341309 62.826172
36.358582 30.341309 62.330322
40.950592 23.341309 60.075073
41.358582 23.341309 59.875916
42.358582 23.341309 59.369324
41.054749 24.341309 60.075073
41.358582 24.341309 59.935669
42.358582 24.341309 59.464172
41.172974 25.341309 60.075073
42.358582 25.341309 59.551758
42.358582 26.341309 59.595581
41.273926 26.341309 60.075073
38.760162 23.341309 61.075073
39.358582 23.341309 60.809143
40.358582 23.341309 60.349487
38.800079 24.341309 61.075073
39.358582 24.341309 60.827698
40.358582 24.341309 60.382568
38.820129 25.341309 61.075073
39.358582 25.341309 60.845825
40.358582 25.341309 60.421204
38.900909 26.341309 61.075073
39.358582 26.341309 60.881287
40.358582 26.341309 60.462524
42.943817 23.341309 59.075073
43.358582 23.341309 58.840698
44.358582 23.341309 58.292053
43.153839 24.341309 59.075073
43.358582 24.341309 58.959351
44.358582 24.341309 58.396912
43.357178 25.341309 59.075073
44.358582 25.341309 58.504272
43.358582 26.341309 59.116028
44.358582 26.341309 58.549133
41.358582 27.192017 60.075073
42.358582 27.341309 59.607361
41.358582 27.341309 60.080750
41.358582 28.341309 60.092468
42.358582 28.341309 59.590698
41.358582 29.040833 60.075073
42.358582 29.341309 59.546143
41.331238 29.341309 60.075073
41.246155 30.341309 60.075073
42.358582 30.341309 59.491089
39.036926 27.341309 61.075073
39.358582 27.341309 60.935791
40.358582 27.341309 60.514709
39.127258 28.341309 61.075073
39.358582 28.341309 60.972656
40.358582 28.341309 60.544678
39.138306 29.341309 61.075073
39.358582 29.341309 60.974426
40.358582 29.341309 60.532471
39.358582 30.341309 60.960632
39.121887 30.341309 61.075073
40.358582 30.341309 60.498169
44.358582 27.341309 58.520447
43.358582 27.341309 59.094849
43.358582 27.836487 59.075073
44.358582 28.341309 58.461426
43.317719 28.341309 59.075073
43.229156 29.341309 59.075073
44.358582 29.341309 58.392761
43.358582 30.341309 58.928406
43.121277 30.341309 59.075073
44.358582 30.341309 58.318359
22.358582 31.341309 65.929443
21.667053 31.341309 66.075073
22.358582 32.341309 65.928345
21.621552 32.341309 66.075073
22.358582 33.341309 65.940735
21.605988 33.341309 66.075073
21.794586 34.341309 66.075073
22.358582 34.341309 65.983582
22.166016 35.341309 66.075073
23.358582 31.341309 65.771973
24.358582 31.341309 65.709900
23.358582 32.341309 65.785889
24.358582 32.341309 65.726990
25.358582 31.341309 65.686584
26.358582 31.341309 65.587402
25.358582 32.341309 65.684998
26.358582 32.341309 65.567139
23.358582 33.341309 65.812927
24.358582 33.341309 65.749695
23.358582 34.341309 65.855042
24.358582 34.341309 65.767029
25.358582 33.341309 65.678406
26.358582 33.341309 65.520996
25.358582 34.341309 65.650452
26.358582 34.341309 65.444580
28.168213 31.341309 65.075073
28.358582 32.341309 65.014709
28.154053 32.341309 65.075073
27.358582 31.341309 65.343628
27.358582 32.341309 65.325439
29.358582 31.341309 64.694702
30.358582 31.341309 64.422668
29.358582 32.341309 64.712402
30.358582 32.341309 64.450623
28.358582 33.341309 64.959290
27.953552 33.341309 65.075073
28.358582 34.341309 64.876038
27.645782 34.341309 65.075073
27.358582 33.341309 65.261169
27.358582 34.341309 65.165344
29.358582 33.341309 64.678894
30.358582 33.341309 64.444336
29.358582 34.341309 64.622864
30.358582 34.341309 64.409424
23.358582 35.341309 65.907471
24.358582 35.341309 65.774719
22.358582 35.697876 66.075073
22.644135 36.341309 66.075073
23.358582 36.341309 65.950012
24.358582 36.341309 65.767151
25.358582 35.341309 65.599976
26.358582 35.341309 65.350647
25.358582 36.341309 65.541199
26.358582 36.341309 65.267395
22.755066 37.341309 66.075073
23.358582 37.341309 65.950012
24.358582 37.341309 65.738220
23.358582 38.341309 65.915344
22.613129 38.341309 66.075073
24.358582 38.341309 65.698547
25.358582 37.341309 65.491943
26.358582 37.341309 65.222229
25.358582 38.341309 65.460510
26.358582 38.341309 65.213318
28.358582 35.341309 64.802795
27.326721 35.341309 65.075073
27.358582 36.341309 64.991272
27.064819 36.341309 65.075073
28.358582 36.341309 64.757935
29.358582 35.341309 64.575195
30.358582 35.341309 64.359009
29.358582 36.341309 64.549866
30.358582 36.341309 64.324097
27.358582 37.341309 64.961670
26.935150 37.341309 65.075073
28.358582 37.341309 64.737732
26.948151 38.341309 65.075073
27.358582 38.341309 64.969788
28.358582 38.341309 64.736328
29.358582 37.341309 64.524231
30.358582 37.341309 64.281433
29.358582 38.341309 64.493652
30.358582 38.341309 64.224182
22.619476 39.341309 66.075073
23.358582 39.341309 65.897766
24.358582 39.341309 65.672119
22.771637 40.341309 66.075073
23.358582 40.341309 65.917419
24.358582 40.341309 65.682739
25.358582 39.341309 65.442261
26.358582 39.341309 65.210266
25.358582 40.341309 65.449768
26.358582 40.341309 65.213013
22.912018 41.341309 66.075073
23.358582 41.341309 65.950684
24.358582 41.341309 65.709534
23.069366 42.341309 66.075073
23.358582 42.341309 65.989868
24.358582 42.341309 65.734314
25.358582 41.341309 65.467957
26.358582 41.341309 65.221252
25.358582 42.341309 65.483948
26.358582 42.341309 65.228821
26.974121 39.341309 65.075073
27.358582 39.341309 64.979187
28.358582 39.341309 64.735779
26.973602 40.341309 65.075073
27.358582 40.341309 64.975708
28.358582 40.341309 64.720764
29.358582 39.341309 64.469910
30.358582 39.341309 64.180542
29.358582 40.341309 64.447449
30.358582 40.341309 64.154175
27.358582 41.341309 64.969055
26.971619 41.341309 65.075073
28.358582 41.341309 64.700317
27.358582 42.341309 64.962585
26.966644 42.341309 65.075073
28.358582 42.341309 64.683350
29.358582 41.341309 64.421326
30.358582 41.341309 64.128418
29.358582 42.341309 64.397827
30.358582 42.341309 64.103210
23.198822 43.341309 66.075073
24.358582 43.341309 65.768616
24.358582 44.341309 65.812866
23.307281 44.341309 66.075073
25.358582 43.341309 65.512939
26.358582 43.341309 65.246643
25.358582 44.341309 65.553406
26.358582 44.341309 65.272583
23.358582 44.689331 66.075073
24.358582 45.341309 65.857666
23.358582 45.341309 66.107178
23.672424 46.341309 66.075073
24.358582 46.341309 65.896484
25.358582 45.341309 65.588379
26.358582 45.341309 65.295044
25.358582 46.341309 65.614075
26.358582 46.341309 65.319214
27.000610 43.341309 65.075073
27.358582 43.341309 64.966614
28.358582 43.341309 64.677368
27.057739 44.341309 65.075073
27.358582 44.341309 64.979065
28.358582 44.341309 64.682129
29.358582 43.341309 64.387207
30.358582 43.341309 64.096985
29.358582 44.341309 64.390686
30.358582 44.341309 64.105957
27.108521 45.341309 65.075073
27.358582 45.341309 64.994019
28.358582 45.341309 64.700012
27.198120 46.341309 65.075073
28.358582 46.341309 64.735352
29.358582 45.341309 64.411560
30.358582 45.341309 64.122131
29.358582 46.341309 64.444031
30.358582 46.341309 64.146851
46.166321 31.341309 57.075073
46.063080 32.341309 57.075073
45.358582 31.341309 57.615295
44.649231 31.341309 58.075073
45.358582 32.341309 57.548462
44.358582 32.341309 58.177063
45.970123 33.341309 57.075073
45.909973 34.341309 57.075073
45.358582 33.341309 57.491150
44.358582 33.341309 58.124695
45.358582 34.341309 57.450684
44.358582 34.498352 58.075073
45.874390 35.341309 57.075073
45.824890 36.341309 57.075073
45.358582 35.341309 57.424866
44.305939 35.341309 58.075073
45.358582 36.341309 57.394348
44.252747 36.341309 58.075073
44.358582 37.341309 57.971313
44.173126 37.341309 58.075073
44.358582 38.341309 57.916077
44.075928 38.341309 58.075073
45.748840 37.341309 57.075073
45.667419 38.341309 57.075073
45.358582 37.341309 57.344727
45.358582 38.341309 57.287598
44.358582 39.341309 57.861511
43.986877 39.341309 58.075073
44.358582 40.341309 57.808533
43.906403 40.341309 58.075073
45.575562 39.341309 57.075073
45.358582 40.341309 57.159912
45.358582 39.341309 57.224976
44.358582 41.341309 57.761841
43.833374 41.341309 58.075073
44.358582 42.341309 57.718323
43.768585 42.341309 58.075073
45.358582 41.341309 57.109375
45.358582 42.056458 57.075073
45.342285 42.341309 57.075073
44.358582 43.341309 57.682678
43.720154 43.341309 58.075073
44.358582 44.341309 57.659668
43.683960 44.341309 58.075073
45.286835 43.341309 57.075073
45.255402 44.341309 57.075073
44.358582 45.341309 57.652771
43.672424 45.341309 58.075073
43.705597 46.341309 58.075073
44.358582 46.341309 57.669556
45.237762 45.341309 57.075073
45.239410 46.341309 57.075073
37.358582 31.341309 61.865540
36.914764 31.341309 62.075073
38.358582 31.341309 61.405396
37.358582 32.341309 61.836121
36.852539 32.341309 62.075073
38.358582 32.341309 61.367615
37.358582 33.341309 61.793396
36.769958 33.341309 62.075073
38.358582 33.341309 61.310486
37.358582 34.341309 61.750671
36.669159 34.341309 62.075073
38.358582 34.341309 61.264465
37.358582 35.341309 61.699219
36.358582 35.341309 62.146729
38.358582 35.341309 61.223389
37.358582 36.341309 61.646973
36.358582 36.341309 62.091614
38.358582 36.341309 61.178467
36.358582 36.719971 62.075073
37.358582 37.341309 61.603699
36.290619 37.341309 62.075073
38.358582 37.341309 61.140991
36.183075 38.341309 62.075073
37.358582 38.341309 61.571655
38.358582 38.341309 61.115356
31.908569 31.341309 64.075073
32.358582 31.341309 63.966675
32.017822 32.341309 64.075073
32.358582 32.341309 63.986755
33.358582 31.341309 63.671570
34.358582 31.341309 63.279114
33.358582 32.341309 63.667114
34.358582 32.341309 63.251709
32.358582 33.341309 63.979492
32.012939 33.341309 64.075073
32.358582 34.341309 63.927490
31.846100 34.341309 64.075073
33.358582 33.341309 63.635010
34.358582 33.341309 63.204346
33.358582 34.341309 63.569153
34.358582 34.341309 63.139648
31.358582 31.341309 64.196716
31.358582 32.341309 64.228699
31.358582 33.341309 64.233704
31.358582 34.341309 64.197205
35.358582 31.341309 62.814209
34.833313 31.341309 63.075073
36.358582 31.341309 62.323792
34.761475 32.341309 63.075073
35.358582 32.341309 62.778992
36.358582 32.341309 62.293335
35.358582 33.341309 62.735962
34.658630 33.341309 63.075073
36.358582 33.341309 62.257263
35.358582 34.341309 62.677002
36.358582 34.341309 62.210022
32.358582 35.341309 63.819031
31.358582 35.341309 64.115662
31.358582 35.903625 64.075073
32.358582 36.341309 63.724304
31.270569 36.341309 64.075073
34.304504 35.341309 63.075073
34.358582 36.341309 62.969299
34.082092 36.341309 63.075073
33.358582 35.341309 63.462158
34.358582 35.128662 63.075073
33.358582 36.341309 63.362610
31.358582 37.341309 63.986755
31.092010 37.341309 64.075073
32.358582 37.341309 63.657471
31.358582 38.341309 63.919373
30.882172 38.341309 64.075073
32.358582 38.341309 63.594788
34.358582 37.341309 62.902283
33.904633 37.341309 63.075073
34.358582 38.341309 62.843689
33.761780 38.341309 63.075073
33.358582 37.341309 63.292542
33.358582 38.341309 63.236755
35.358582 35.341309 62.600708
35.358582 36.341309 62.531616
35.358582 37.341309 62.475891
35.358582 38.341309 62.423218
41.358582 31.341309 59.955933
41.126617 31.341309 60.075073
42.358582 31.341309 59.415710
41.358582 32.341309 59.881653
40.984314 32.341309 60.075073
42.358582 32.341309 59.337585
41.358582 33.341309 59.828308
40.875183 33.341309 60.075073
42.358582 33.341309 59.293701
41.358582 34.341309 59.806396
40.824341 34.341309 60.075073
42.358582 34.341309 59.269836
39.358582 31.341309 60.931458
39.074799 31.341309 61.075073
40.358582 31.341309 60.447388
39.358582 32.341309 60.882446
38.982391 32.341309 61.075073
40.358582 32.341309 60.385071
39.358582 33.341309 60.821777
38.862000 33.341309 61.075073
40.358582 33.341309 60.326782
39.358582 34.341309 60.778015
38.769684 34.341309 61.075073
40.358582 34.341309 60.294556
43.358582 31.341309 58.843262
42.982025 31.341309 59.075073
44.358582 31.341309 58.242676
43.358582 32.341309 58.769836
42.850861 32.341309 59.075073
42.776093 33.341309 59.075073
43.358582 33.341309 58.724854
43.358582 34.341309 58.684570
42.724976 34.341309 59.075073
41.358582 35.341309 59.783325
40.777374 35.341309 60.075073
42.358582 35.341309 59.236267
41.358582 36.341309 59.747192
40.705872 36.341309 60.075073
42.358582 36.341309 59.198608
41.358582 37.341309 59.704102
40.630524 37.341309 60.075073
42.358582 37.341309 59.152405
41.358582 38.341309 59.654236
40.549408 38.341309 60.075073
42.358582 38.341309 59.098633
39.358582 35.341309 60.745178
38.689972 35.341309 61.075073
40.358582 35.341309 60.270874
39.358582 36.341309 60.708252
38.597412 36.341309 61.075073
40.358582 36.341309 60.237549
39.358582 37.341309 60.676880
40.358582 37.341309 60.203857
39.358582 38.341309 60.651672
40.358582 38.341309 60.168030
43.358582 35.341309 58.641357
42.657776 35.341309 59.075073
43.358582 36.341309 58.603638
42.588867 36.341309 59.075073
43.358582 37.341309 58.555359
43.358582 38.341309 58.499573
36.358582 39.341309 61.984924
36.129120 39.341309 62.075073
36.125061 40.341309 62.075073
36.358582 40.341309 61.982178
37.358582 39.341309 61.556763
38.358582 39.341309 61.100830
37.358582 40.341309 61.548584
38.358582 40.341309 61.087280
36.358582 41.341309 61.971252
36.097717 41.341309 62.075073
36.358582 42.341309 61.954041
36.054138 42.341309 62.075073
37.358582 41.341309 61.533691
38.358582 41.112854 61.075073
38.349182 41.341309 61.075073
37.358582 42.341309 61.516113
38.311127 42.341309 61.075073
36.358582 43.341309 61.945496
36.032318 43.341309 62.075073
36.025238 44.341309 62.075073
36.358582 44.341309 61.944031
37.358582 43.341309 61.507202
38.283478 43.341309 61.075073
37.358582 44.341309 61.505859
38.268585 44.341309 61.075073
36.358582 45.341309 61.944885
36.023438 45.341309 62.075073
36.038177 46.341309 62.075073
36.358582 46.341309 61.951355
37.358582 45.341309 61.510193
38.272247 45.341309 61.075073
37.358582 46.341309 61.523438
38.306915 46.341309 61.075073
31.358582 39.341309 63.868713
30.721954 39.341309 64.075073
32.358582 39.341309 63.545837
31.358582 40.341309 63.840393
30.631317 40.341309 64.075073
32.358582 40.341309 63.511841
34.358582 39.341309 62.806824
33.665833 39.341309 63.075073
34.358582 40.341309 62.785828
33.586945 40.341309 63.075073
33.358582 39.341309 63.196960
33.358582 40.341309 63.164185
31.358582 41.341309 63.814880
32.358582 41.341309 63.483765
31.358582 42.341309 63.796448
32.358582 42.341309 63.479248
34.358582 41.341309 62.768372
33.358582 41.341309 63.137024
33.358582 42.341309 63.138977
34.358582 42.341309 62.765320
35.358582 39.341309 62.395020
35.358582 40.341309 62.389954
35.358582 41.341309 62.379456
35.358582 42.341309 62.365356
31.358582 43.341309 63.798279
32.358582 43.341309 63.486084
31.358582 44.341309 63.806702
32.358582 44.341309 63.484802
33.358582 43.341309 63.140381
34.358582 43.341309 62.759949
33.358582 44.341309 63.128784
34.358582 44.341309 62.747620
31.358582 45.341309 63.814270
32.358582 45.341309 63.483521
30.610077 46.341309 64.075073
31.358582 46.341309 63.834534
32.358582 46.341309 63.499756
34.358582 45.341309 62.738708
33.358582 45.341309 63.122864
33.358582 46.341309 63.136536
34.358582 46.341309 62.747620
35.358582 43.341309 62.355408
35.358582 44.341309 62.348877
35.358582 45.341309 62.344360
35.358582 46.341309 62.350281
41.358582 39.341309 59.616089
40.358582 39.341309 60.138062
42.358582 38.905762 59.075073
42.321472 39.341309 59.075073
41.358582 40.341309 59.590942
40.358582 40.341309 60.120300
42.253479 40.341309 59.075073
42.191345 41.341309 59.075073
42.358582 42.341309 58.948486
42.139008 42.341309 59.075073
41.358582 41.341309 59.564697
40.358582 41.341309 60.103943
41.358582 42.341309 59.538025
40.358582 42.341309 60.081482
39.358582 39.341309 60.629883
39.358582 40.341309 60.611694
39.358582 41.341309 60.596191
39.358582 42.341309 60.576660
43.358582 39.341309 58.451599
43.358582 40.341309 58.406372
43.358582 41.341309 58.364075
43.358582 42.341309 58.328064
42.358582 43.341309 58.925964
42.100189 43.341309 59.075073
42.064819 44.341309 59.075073
42.358582 44.341309 58.905762
40.358582 42.604736 60.075073
41.358582 43.341309 59.515381
40.324402 43.341309 60.075073
40.289093 44.341309 60.075073
41.358582 44.341309 59.495605
42.047760 45.341309 59.075073
42.358582 45.341309 58.895386
42.070099 46.341309 59.075073
42.358582 46.341309 58.909241
40.279114 45.341309 60.075073
41.358582 45.341309 59.486694
40.298187 46.341309 60.075073
41.358582 46.341309 59.496460
39.358582 43.341309 60.556946
39.358582 44.341309 60.545166
39.358582 45.341309 60.545044
39.358582 46.341309 60.557495
43.358582 43.341309 58.301086
43.358582 44.341309 58.279419
43.358582 45.341309 58.272217
43.358582 46.341309 58.292358
13.358582 41.341309 68.404968
14.358582 40.341309 68.104614
14.358582 41.341309 68.090576
14.358582 42.341309 68.134155
13.358582 42.341309 68.429260
14.358582 43.341309 68.205688
13.358582 43.341309 68.478210
13.358582 44.341309 68.573853
12.358582 44.341309 68.851074
12.358582 43.341309 68.801392
14.358582 44.341309 68.324890
13.358582 45.341309 68.704590
12.358582 45.341309 68.941589
14.358582 45.341309 68.452209
12.358582 46.249634 69.075073
13.358582 46.341309 68.855347
14.358582 46.341309 68.557251
20.358582 27.341309 66.302368
20.358582 28.341309 66.366943
20.358582 29.341309 66.420776
19.358582 29.341309 66.662842
19.358582 28.341309 66.627136
20.358582 30.341309 66.431396
19.358582 30.341309 66.691406
21.358582 29.341309 66.171570
21.358582 30.341309 66.166199
18.358582 32.341309 66.864746
17.358582 32.341309 66.981873
17.358582 31.341309 66.952026
18.358582 31.341309 66.868408
18.358582 33.341309 66.868164
17.180176 33.341309 67.075073
17.358582 33.587097 67.075073
17.616241 34.341309 67.075073
18.358582 34.341309 66.884277
17.358582 34.341309 67.138855
16.358582 34.341309 67.333557
19.358582 31.341309 66.677185
20.358582 31.341309 66.413086
19.358582 32.341309 66.645081
20.358582 32.341309 66.382690
21.358582 31.341309 66.154785
21.358582 32.341309 66.139465
19.358582 33.341309 66.612732
20.358582 33.341309 66.354370
19.358582 34.341309 66.611938
20.358582 34.341309 66.370605
21.358582 33.341309 66.130249
21.358582 34.341309 66.163208
16.358582 36.341309 67.584656
15.358582 36.341309 67.906494
15.358582 35.341309 67.722839
16.358582 35.341309 67.494812
17.750458 35.341309 67.075073
18.358582 35.341309 66.891235
18.358582 36.341309 66.863647
17.717560 36.341309 67.075073
17.358582 35.341309 67.202087
17.358582 36.341309 67.211548
16.358582 37.341309 67.577637
15.358582 37.341309 67.972595
15.358582 38.341309 67.930359
16.358582 38.341309 67.511597
18.358582 37.341309 66.832947
17.606201 37.341309 67.075073
18.358582 38.341309 66.843567
17.358582 38.341309 67.129028
17.358582 37.341309 67.171631
19.358582 35.341309 66.616577
20.358582 35.341309 66.399231
19.358582 36.341309 66.596069
20.358582 36.341309 66.415283
21.358582 35.341309 66.213989
21.358582 36.341309 66.267334
22.358582 36.341309 66.115112
19.358582 37.341309 66.595215
20.358582 37.341309 66.444519
19.358582 38.341309 66.646118
20.358582 38.341309 66.491028
21.358582 37.341309 66.308716
22.358582 37.341309 66.142334
21.358582 38.341309 66.322754
22.358582 38.341309 66.123108
14.975677 38.341309 68.075073
15.358582 39.341309 67.841858
14.724823 39.341309 68.075073
16.358582 39.341309 67.447754
15.358582 40.341309 67.772400
16.358582 40.341309 67.434082
18.358582 39.341309 66.905701
17.358582 39.341309 67.121033
17.932770 40.341309 67.075073
18.358582 40.341309 67.022888
17.358582 40.341309 67.176025
15.358582 41.341309 67.779663
16.358582 41.341309 67.496338
14.568329 42.341309 68.075073
15.358582 42.341309 67.851196
16.358582 42.341309 67.612244
18.358582 40.708435 67.075073
17.358582 41.341309 67.299194
18.358582 41.341309 67.179382
17.358582 42.341309 67.445862
18.358582 42.341309 67.327820
19.358582 39.341309 66.751221
20.358582 39.341309 66.583252
19.358582 40.341309 66.896362
20.358582 40.341309 66.715698
21.358582 39.341309 66.374084
22.358582 39.341309 66.133301
21.358582 40.341309 66.464050
22.358582 40.341309 66.180481
19.242554 41.341309 67.075073
20.358582 41.341309 66.843567
19.853302 42.341309 67.075073
20.358582 42.341309 66.944275
19.358582 42.341309 67.183899
21.358582 41.341309 66.538696
22.358582 41.341309 66.222473
21.358582 42.341309 66.605469
22.358582 42.341309 66.272705
14.892883 43.341309 68.075073
15.358582 43.341309 67.960144
16.358582 43.341309 67.748840
15.358582 44.341309 68.092407
16.358582 44.341309 67.876831
17.358582 43.341309 67.580933
18.358582 43.341309 67.436401
17.358582 44.341309 67.685730
18.358582 44.341309 67.495911
15.853577 45.341309 68.075073
16.358582 45.341309 67.959229
16.049805 46.341309 68.075073
16.358582 46.341309 68.000549
17.358582 45.341309 67.741150
18.358582 45.341309 67.514771
17.358582 46.341309 67.769592
18.358582 46.341309 67.533447
15.358582 45.341309 68.194214
15.358582 46.341309 68.256653
20.066284 43.341309 67.075073
20.358582 43.341309 66.991272
20.358582 44.341309 66.981873
20.044891 44.341309 67.075073
19.358582 43.341309 67.256592
19.358582 44.341309 67.270447
21.358582 43.341309 66.643494
22.358582 43.341309 66.310303
21.358582 44.341309 66.642212
22.358582 44.341309 66.324890
20.358582 45.341309 66.963928
19.981812 45.341309 67.075073
20.027557 46.341309 67.075073
20.358582 46.341309 66.978027
19.358582 45.341309 67.260681
19.358582 46.341309 67.274353
21.358582 45.341309 66.643738
22.358582 45.341309 66.354187
21.358582 46.341309 66.670166
22.358582 46.341309 66.401367
23.358582 46.341309 66.158813
45.911224 78.341309 50.075073
23.828979 47.341309 66.075073
24.358582 47.341309 65.935486
24.005371 48.341309 66.075073
24.358582 48.341309 65.981506
25.358582 47.341309 65.649902
26.358582 47.341309 65.359009
25.358582 48.341309 65.694946
26.358582 48.341309 65.406555
24.227783 49.341309 66.075073
25.358582 49.341309 65.749817
26.358582 49.341309 65.461853
24.358582 49.852478 66.075073
25.358582 50.341309 65.817017
24.358582 50.341309 66.104736
26.358582 50.341309 65.527405
28.358582 47.341309 64.781189
27.343323 47.341309 65.075073
27.358582 48.341309 65.119934
28.358582 48.341309 64.830750
29.358582 47.341309 64.481384
30.358582 47.341309 64.179993
29.358582 48.341309 64.527771
30.358582 48.341309 64.221191
27.677307 49.341309 65.075073
28.358582 49.341309 64.881470
27.860718 50.341309 65.075073
28.358582 50.341309 64.932800
27.358582 49.341309 65.173340
27.358582 50.341309 65.231873
29.358582 49.341309 64.577454
30.358582 49.341309 64.265686
29.358582 50.341309 64.626465
30.358582 50.341309 64.313416
24.718201 51.341309 66.075073
25.358582 51.341309 65.885742
26.358582 51.341309 65.593018
24.984711 52.341309 66.075073
25.358582 52.341309 65.960754
26.358582 52.341309 65.665710
25.248657 53.341309 66.075073
26.358582 53.341309 65.747009
25.358582 53.737244 66.075073
26.358582 54.341309 65.831360
25.358582 54.341309 66.123230
28.039673 51.341309 65.075073
28.358582 51.341309 64.983826
28.267242 52.341309 65.075073
27.358582 51.341309 65.289673
27.358582 52.341309 65.360168
29.358582 51.341309 64.675842
30.358582 51.341309 64.366394
29.358582 52.341309 64.736694
30.358582 52.341309 64.426086
27.358582 53.341309 65.447021
28.358582 52.670715 65.075073
28.358582 53.341309 65.137146
27.358582 54.341309 65.533875
28.358582 54.341309 65.223083
29.358582 53.341309 64.818176
28.567963 53.341309 65.075073
30.358582 53.341309 64.497437
28.841827 54.341309 65.075073
29.358582 54.341309 64.900940
30.358582 54.341309 64.572754
25.829559 55.341309 66.075073
26.358582 55.341309 65.925171
26.197662 56.341309 66.075073
27.358582 55.341309 65.623230
28.358582 55.341309 65.305237
27.358582 56.341309 65.726318
28.358582 56.341309 65.406006
29.079163 55.341309 65.075073
29.358582 55.341309 64.978210
30.358582 55.341309 64.644897
29.342255 56.341309 65.075073
30.358582 56.341309 64.723206
26.358582 56.796631 66.075073
27.358582 57.341309 65.824158
26.358582 57.341309 66.130005
28.358582 57.341309 65.508301
26.873383 58.341309 66.075073
27.358582 58.341309 65.915222
28.358582 58.341309 65.602844
29.602997 57.341309 65.075073
30.358582 57.341309 64.813477
29.862854 58.341309 65.075073
30.358582 58.341309 64.906311
29.358582 57.341309 65.169434
29.358582 58.341309 65.265808
27.183624 59.341309 66.075073
28.358582 59.341309 65.695984
27.358582 59.999146 66.075073
28.358582 60.341309 65.772583
27.358582 60.341309 66.100708
30.093842 59.341309 65.075073
30.358582 59.341309 64.984497
30.247986 60.341309 65.075073
29.358582 59.341309 65.353516
29.358582 60.341309 65.419739
27.612732 61.341309 66.075073
28.358582 61.341309 65.825562
27.757813 62.341309 66.075073
28.358582 62.341309 65.864746
29.358582 61.341309 65.458557
30.315308 61.341309 65.075073
29.358582 62.341309 65.478516
30.324402 62.341309 65.075073
43.753815 47.341309 58.075073
44.358582 47.341309 57.697388
43.787903 48.341309 58.075073
44.358582 48.341309 57.718628
45.261841 47.341309 57.075073
45.286438 48.341309 57.075073
43.823700 49.341309 58.075073
44.358582 49.341309 57.738708
43.877930 50.341309 58.075073
44.358582 50.341309 57.774658
45.311462 49.341309 57.075073
45.358582 50.245178 57.075073
45.358582 50.341309 57.079346
43.948822 51.341309 58.075073
44.358582 51.341309 57.824951
44.020050 52.341309 58.075073
44.358582 52.341309 57.871887
45.358582 51.341309 57.137024
45.358582 52.341309 57.192200
44.079590 53.341309 58.075073
44.358582 53.341309 57.909729
44.129150 54.341309 58.075073
44.358582 54.341309 57.940125
45.592194 53.341309 57.075073
45.649475 54.341309 57.075073
45.358582 53.341309 57.244019
45.358582 54.341309 57.284058
44.155945 55.341309 58.075073
44.358582 55.341309 57.956055
44.358582 56.341309 57.957153
44.157440 56.341309 58.075073
45.672363 55.341309 57.075073
45.680389 56.341309 57.075073
45.358582 55.341309 57.300354
45.358582 56.341309 57.303711
44.358582 57.341309 57.950134
44.145416 57.341309 58.075073
44.358582 58.341309 57.936890
44.124084 58.341309 58.075073
45.680115 57.341309 57.075073
45.657532 58.341309 57.075073
45.358582 57.341309 57.300049
45.358582 58.341309 57.283875
44.358582 59.341309 57.918091
44.099487 59.341309 58.075073
44.358582 60.341309 57.884094
44.053864 60.341309 58.075073
45.609680 59.341309 57.075073
45.542877 60.341309 57.075073
45.358582 59.341309 57.252258
45.358582 60.341309 57.206055
44.358582 61.341309 57.824890
43.963745 61.341309 58.075073
44.358582 62.341309 57.731995
43.821838 62.341309 58.075073
45.358582 61.341309 57.140198
45.358582 61.991333 57.075073
45.309723 62.341309 57.075073
36.358582 47.341309 61.968872
36.084320 47.341309 62.075073
36.177704 48.341309 62.075073
37.358582 47.341309 61.545471
38.358582 47.244507 61.075073
38.358582 47.341309 61.078369
37.358582 48.341309 61.582092
38.452271 48.341309 61.075073
37.358582 49.341309 61.625427
36.301605 49.341309 62.075073
38.358582 49.341309 61.156860
36.358582 49.826111 62.075073
37.358582 50.341309 61.662537
36.358582 50.341309 62.095825
38.358582 50.341309 61.186096
36.358582 51.341309 62.137695
37.358582 51.341309 61.700256
38.358582 51.341309 61.220398
36.645721 52.341309 62.075073
37.358582 52.341309 61.751221
38.358582 52.341309 61.269531
36.786438 53.341309 62.075073
37.358582 53.341309 61.807007
38.358582 53.341309 61.317627
36.898529 54.341309 62.075073
37.358582 54.341309 61.855408
38.358582 54.341309 61.362671
30.723907 47.341309 64.075073
31.358582 47.341309 63.870300
32.358582 47.341309 63.538574
30.850311 48.341309 64.075073
31.358582 48.341309 63.905762
32.358582 48.341309 63.573853
33.608368 47.341309 63.075073
34.358582 47.341309 62.783447
33.706055 48.341309 63.075073
34.358582 48.341309 62.825317
33.358582 47.341309 63.176208
33.358582 48.341309 63.213928
30.975006 49.341309 64.075073
31.358582 49.341309 63.943115
32.358582 49.341309 63.611450
31.121521 50.341309 64.075073
31.358582 50.341309 63.992920
32.358582 50.341309 63.662720
33.817871 49.341309 63.075073
34.358582 49.341309 62.871643
34.358582 50.341309 62.920166
33.947174 50.341309 63.075073
33.358582 49.341309 63.255188
33.358582 50.341309 63.305908
35.358582 47.341309 62.374451
35.358582 48.341309 62.413818
35.358582 49.341309 62.462158
35.358582 50.341309 62.507690
31.295776 51.341309 64.075073
32.358582 51.341309 63.720093
31.358582 51.680298 64.075073
32.358582 52.341309 63.783203
31.358582 52.341309 64.116882
34.358582 51.341309 62.967163
34.071960 51.341309 63.075073
34.227997 52.341309 63.075073
33.358582 51.341309 63.356689
33.358582 52.341309 63.416382
32.358582 53.341309 63.847290
31.680115 53.341309 64.075073
31.880157 54.341309 64.075073
32.358582 54.341309 63.912598
33.358582 53.341309 63.486328
34.358582 53.025085 63.075073
34.358582 53.341309 63.100098
33.358582 54.341309 63.556152
34.358582 54.341309 63.168823
31.358582 53.341309 64.179932
31.358582 54.341309 64.247070
35.358582 51.341309 62.554565
35.358582 52.341309 62.614807
36.358582 52.341309 62.191589
35.358582 53.341309 62.686218
36.358582 53.341309 62.253906
34.607697 54.341309 63.075073
35.358582 54.341309 62.749390
36.358582 54.341309 62.307251
42.109436 47.341309 59.075073
42.358582 47.341309 58.933411
42.156921 48.341309 59.075073
42.358582 48.341309 58.960144
40.336884 47.341309 60.075073
41.358582 47.341309 59.516968
40.358582 47.718323 60.075073
41.358582 48.341309 59.546936
40.358582 48.341309 60.096375
42.222168 49.341309 59.075073
40.358582 49.341309 60.132690
41.358582 49.341309 59.586365
41.358582 50.341309 59.618103
40.358582 50.341309 60.161865
42.278931 50.341309 59.075073
39.358582 47.341309 60.581787
39.358582 48.341309 60.619080
39.358582 49.341309 60.655273
38.599915 50.341309 61.075073
39.358582 50.341309 60.682678
43.358582 47.341309 58.321106
43.358582 48.341309 58.343628
43.358582 49.341309 58.369507
43.358582 50.341309 58.402649
40.585754 51.341309 60.075073
41.358582 51.341309 59.647705
42.335144 51.341309 59.075073
41.358582 52.341309 59.687073
40.655975 52.341309 60.075073
42.358582 51.640625 59.075073
42.358582 52.341309 59.103760
40.726196 53.341309 60.075073
41.358582 53.341309 59.725891
42.358582 53.341309 59.142822
40.789886 54.341309 60.075073
41.358582 54.341309 59.756958
42.358582 54.341309 59.170349
38.672577 51.341309 61.075073
39.358582 51.341309 60.717407
40.358582 51.341309 60.193054
38.770111 52.341309 61.075073
39.358582 52.341309 60.761841
40.358582 52.341309 60.230530
38.858154 53.341309 61.075073
39.358582 53.341309 60.804321
40.358582 53.341309 60.268860
38.939545 54.341309 61.075073
39.358582 54.341309 60.846741
40.358582 54.341309 60.306763
43.358582 51.341309 58.443176
43.358582 52.341309 58.486450
43.358582 53.341309 58.523254
43.358582 54.341309 58.551147
36.997894 55.341309 62.075073
37.358582 55.341309 61.899292
38.358582 55.341309 61.402466
37.069672 56.341309 62.075073
37.358582 56.341309 61.932556
38.358582 56.341309 61.434814
37.101624 57.341309 62.075073
37.358582 57.341309 61.949463
38.358582 57.341309 61.456726
37.122803 58.341309 62.075073
37.358582 58.341309 61.958740
38.358582 58.341309 61.464417
37.141632 59.341309 62.075073
37.358582 59.341309 61.966431
38.358582 59.341309 61.467896
37.358582 60.341309 61.952148
37.116150 60.341309 62.075073
38.358582 60.341309 61.445129
37.358582 61.341309 61.910034
37.040070 61.341309 62.075073
38.358582 61.341309 61.387573
37.358582 62.341309 61.856140
36.945648 62.341309 62.075073
38.358582 62.341309 61.313232
32.061554 55.341309 64.075073
32.358582 55.341309 63.971558
32.216766 56.341309 64.075073
33.358582 55.341309 63.612610
34.358582 55.341309 63.221497
33.358582 56.341309 63.659546
34.358582 56.341309 63.261475
32.358582 57.214905 64.075073
33.358582 57.341309 63.706299
32.379547 57.341309 64.075073
34.358582 57.341309 63.293823
32.358582 58.341309 64.143860
33.358582 58.341309 63.752930
34.358582 58.341309 63.328613
31.358582 55.341309 64.312195
31.358582 56.341309 64.375183
31.358582 57.341309 64.447571
31.358582 58.341309 64.525513
34.738708 55.341309 63.075073
35.358582 55.341309 62.801331
36.358582 55.341309 62.355347
34.831268 56.341309 63.075073
35.358582 56.341309 62.838562
36.358582 56.341309 62.389587
34.889069 57.341309 63.075073
35.358582 57.341309 62.857910
36.358582 57.341309 62.404175
34.951080 58.341309 63.075073
35.358582 58.341309 62.880066
36.358582 58.341309 62.418396
32.654358 59.341309 64.075073
33.358582 59.341309 63.785278
34.358582 59.341309 63.353699
32.709656 60.341309 64.075073
33.358582 60.341309 63.798767
34.358582 60.341309 63.358032
32.727570 61.341309 64.075073
33.358582 61.341309 63.799622
34.358582 61.341309 63.346741
33.358582 62.341309 63.784180
32.707184 62.341309 64.075073
34.358582 62.341309 63.319397
31.358582 59.341309 64.591064
32.358582 59.341309 64.192139
31.358582 60.341309 64.631470
32.358582 60.341309 64.219421
31.358582 61.341309 64.648376
32.358582 61.341309 64.229675
31.358582 62.341309 64.647766
32.358582 62.341309 64.223511
35.001923 59.341309 63.075073
35.358582 59.341309 62.901978
36.358582 59.341309 62.433044
35.358582 60.341309 62.904236
35.006653 60.341309 63.075073
36.358582 60.341309 62.428162
35.358582 61.341309 62.884399
34.969543 61.341309 63.075073
36.358582 61.341309 62.398376
35.358582 62.341309 62.847229
34.900635 62.341309 63.075073
36.358582 62.341309 62.354675
40.835632 55.341309 60.075073
41.358582 55.341309 59.776672
42.358582 55.341309 59.183289
40.869659 56.341309 60.075073
41.358582 56.341309 59.791565
42.358582 56.341309 59.190918
41.358582 57.341309 59.806946
40.896637 57.341309 60.075073
42.358582 57.341309 59.198425
40.910492 58.341309 60.075073
41.358582 58.341309 59.816589
42.358582 58.341309 59.202393
39.008453 55.341309 61.075073
39.358582 55.341309 60.881897
40.358582 55.341309 60.336243
39.064240 56.341309 61.075073
39.358582 56.341309 60.909790
40.358582 56.341309 60.357788
39.101654 57.341309 61.075073
39.358582 57.341309 60.928650
40.358582 57.341309 60.372925
39.110596 58.341309 61.075073
39.358582 58.341309 60.933105
40.358582 58.341309 60.379272
42.548615 55.341309 59.075073
43.358582 55.341309 58.566162
42.560486 56.341309 59.075073
43.358582 56.341309 58.570251
42.569611 57.341309 59.075073
43.358582 57.341309 58.567078
42.572083 58.341309 59.075073
43.358582 58.341309 58.560669
41.358582 59.341309 59.819153
40.917114 59.341309 60.075073
42.358582 59.341309 59.206299
41.358582 60.341309 59.792786
40.872345 60.341309 60.075073
42.358582 60.341309 59.184692
41.358582 61.341309 59.722839
40.749146 61.341309 60.075073
42.358582 61.341309 59.117920
41.358582 62.341309 59.616272
40.568604 62.341309 60.075073
42.358582 61.762634 59.075073
42.250610 62.341309 59.075073
39.115112 59.341309 61.075073
39.358582 59.341309 60.935547
40.358582 59.341309 60.382263
39.358582 60.341309 60.910278
39.070404 60.341309 61.075073
40.358582 60.341309 60.356689
39.358582 61.341309 60.846313
38.955750 61.341309 61.075073
40.358582 61.341309 60.289063
39.358582 62.341309 60.759460
38.806946 62.341309 61.075073
40.358582 62.341309 60.191223
42.578186 59.341309 59.075073
43.358582 59.341309 58.558289
42.544556 60.341309 59.075073
43.358582 60.341309 58.535767
43.358582 61.341309 58.473267
43.358582 62.341309 58.376770
27.860992 63.341309 66.075073
28.358582 63.341309 65.890381
27.896667 64.341309 66.075073
28.358582 64.341309 65.895386
29.358582 63.341309 65.481812
30.293854 63.341309 65.075073
29.358582 64.341309 65.466736
30.224762 64.341309 65.075073
28.358582 65.341309 65.874207
27.857147 65.341309 66.075073
28.358582 66.341309 65.829895
27.764984 66.341309 66.075073
30.358582 65.341309 64.971924
30.112183 65.341309 65.075073
30.358582 66.341309 64.905823
29.973267 66.341309 65.075073
29.358582 65.341309 65.430725
29.358582 66.341309 65.375183
28.358582 67.341309 65.763611
27.626801 67.341309 66.075073
28.358582 68.341309 65.677612
27.358582 68.341309 66.114014
30.358582 67.341309 64.818542
29.798340 67.341309 65.075073
30.358582 68.341309 64.700012
29.582947 68.341309 65.075073
29.358582 67.341309 65.296631
29.358582 68.341309 65.193848
27.358582 68.852295 66.075073
28.358582 69.341309 65.579529
27.270538 69.341309 66.075073
27.358582 70.341309 65.947571
27.092529 70.341309 66.075073
28.358582 70.341309 65.461609
30.358582 69.341309 64.562439
29.358582 69.342346 65.075073
29.358582 70.341309 64.941162
29.112305 70.341309 65.075073
30.358582 70.341309 64.410034
26.358582 72.596924 66.075073
26.358582 73.341309 65.942505
26.005249 73.341309 66.075073
26.358582 74.341309 65.736572
25.358582 74.341309 66.144836
30.358582 72.172546 64.075073
30.358582 73.341309 63.825439
29.903290 73.341309 64.075073
30.358582 74.341309 63.583008
29.358582 74.341309 64.159851
27.358582 71.341309 65.830261
26.834503 71.341309 66.075073
28.358582 71.341309 65.319641
27.358582 72.341309 65.677673
26.358582 72.341309 66.113342
28.358582 72.341309 65.150940
29.358582 71.341309 64.779846
28.827271 71.341309 65.075073
30.358582 71.341309 64.235535
29.358582 72.341309 64.593689
28.358582 72.757813 65.075073
28.358582 73.341309 64.950012
28.118530 73.341309 65.075073
28.358582 74.341309 64.720337
27.683899 74.341309 65.075073
27.358582 73.341309 65.483643
27.358582 74.341309 65.251038
29.358582 73.341309 64.385864
25.358582 74.714722 66.075073
25.358582 75.341309 65.942993
25.044373 75.341309 66.075073
26.358582 75.341309 65.506836
25.358582 76.341309 65.726379
24.358582 76.341309 66.130859
26.358582 76.341309 65.260925
24.358582 76.613525 66.075073
24.358582 77.341309 65.910583
23.913452 77.341309 66.075073
24.358582 78.341309 65.673950
23.358582 78.304810 66.075073
26.201355 77.341309 65.075073
26.358582 78.341309 64.756226
25.666290 78.341309 65.075073
25.358582 77.341309 65.481689
26.358582 77.082275 65.075073
25.358582 78.341309 65.226379
29.358582 74.721558 64.075073
29.358582 75.341309 63.927124
29.102020 75.341309 64.075073
30.358582 75.341309 63.332642
29.358582 76.341309 63.682251
28.674469 76.341309 64.075073
30.358917 76.341309 63.075073
28.203094 77.341309 64.075073
28.358582 78.341309 63.731812
27.711639 78.341309 64.075073
30.358582 77.341309 62.802551
29.908112 77.341309 63.075073
30.358582 78.341309 62.526672
29.358582 78.341309 63.148987
28.358582 77.025024 64.075073
29.358582 77.341309 63.419250
28.358582 75.341309 64.484802
27.358582 75.104126 65.075073
27.247559 75.341309 65.075073
27.358582 76.341309 64.771851
26.763824 76.341309 65.075073
28.358582 76.341309 64.244995
27.358582 77.341309 64.514221
27.358582 78.341309 64.258362
45.998352 65.341309 56.075073
45.674347 66.341309 56.075073
44.358582 63.341309 57.599854
43.628357 63.341309 58.075073
44.358582 64.341309 57.432678
43.358582 64.481506 58.075073
45.358582 63.341309 56.904724
45.121338 63.341309 57.075073
45.358582 64.341309 56.737183
44.883179 64.341309 57.075073
43.358582 65.341309 57.917114
43.123138 65.341309 58.075073
44.358582 65.341309 57.239014
43.358582 66.341309 57.708374
42.803894 66.341309 58.075073
44.358582 66.088013 57.075073
44.280060 66.341309 57.075073
45.358582 65.341309 56.536743
44.598145 65.341309 57.075073
45.358582 66.341309 56.305176
42.358582 67.470886 58.075073
42.358582 68.341309 57.850220
41.987976 68.341309 58.075073
42.358582 69.341309 57.554260
41.556305 69.341309 58.075073
41.358582 69.764343 58.075073
41.358582 70.341309 57.906006
41.103912 70.341309 58.075073
42.358582 70.341309 57.221924
46.191498 68.341309 55.075073
45.358582 67.222473 56.075073
45.358582 68.341309 55.730774
44.905151 68.341309 56.075073
44.358582 69.522217 56.075073
44.358582 70.341309 55.778442
43.959656 70.341309 56.075073
45.735504 69.341309 55.075073
45.358582 70.114258 55.075073
45.255981 70.341309 55.075073
45.358582 69.341309 55.376953
44.448822 69.341309 56.075073
44.358582 67.341309 56.768433
43.910278 67.341309 57.075073
44.358582 68.341309 56.470825
43.358582 68.341309 57.174072
43.358582 67.341309 57.459656
42.417755 67.341309 58.075073
43.358582 68.686035 57.075073
43.358582 69.341309 56.862610
43.066376 69.341309 57.075073
43.358582 70.341309 56.513977
42.576569 70.341309 57.075073
38.358582 75.383972 58.075073
38.358582 76.341309 57.680908
37.790802 76.341309 58.075073
38.358582 77.736084 57.075073
38.358582 78.341309 56.831665
38.037872 78.341309 57.075073
38.358582 77.341309 57.251160
37.358582 77.165710 58.075073
37.358582 78.341309 57.610107
36.750916 78.341309 58.075073
45.948303 71.341309 54.075073
45.358582 72.428955 54.075073
45.956299 73.341309 53.075073
45.358582 74.348328 53.075073
45.358582 73.341309 53.609070
44.824860 73.341309 54.075073
44.358582 74.090515 54.075073
44.210754 74.341309 54.075073
42.358582 77.329651 54.075073
42.358582 78.341309 53.553772
41.750305 78.341309 54.075073
45.825714 75.341309 52.075073
45.358582 76.060730 52.075073
45.358582 76.341309 51.909790
45.185944 76.341309 52.075073
44.358582 77.675232 52.075073
44.358582 78.341309 51.693176
43.968414 78.341309 52.075073
45.579193 77.341309 51.075073
45.358582 77.683777 51.075073
45.358582 78.341309 50.673035
44.971741 78.341309 51.075073
45.358582 77.341309 51.298889
44.571198 77.341309 52.075073
44.358582 75.916931 53.075073
44.358582 76.341309 52.841675
44.097809 76.341309 53.075073
44.358582 75.341309 53.404297
43.584290 75.341309 54.075073
43.358582 75.695679 54.075073
43.358582 76.341309 53.735413
42.973724 76.341309 54.075073
45.358582 75.341309 52.508179
44.734161 75.341309 53.075073
44.358582 77.341309 52.273682
43.358582 77.341309 53.189941
43.358582 77.542297 53.075073
43.358582 78.341309 52.649658
42.898315 78.341309 53.075073
42.358582 73.277832 56.075073
42.358582 74.341309 55.587341
41.713379 74.341309 56.075073
40.358582 71.791626 58.075073
40.358582 72.341309 57.890564
40.074066 72.341309 58.075073
42.358582 70.791138 57.075073
42.358582 71.341309 56.869202
42.056244 71.341309 57.075073
42.358582 72.341309 56.474487
41.358582 72.341309 57.186951
41.358582 71.341309 57.567749
40.606201 71.341309 58.075073
40.358582 73.341309 57.506653
39.539490 73.341309 58.075073
39.358582 73.651184 58.075073
39.358582 74.341309 57.810791
38.990875 74.341309 58.075073
40.358582 74.359253 57.075073
41.358582 72.637329 57.075073
41.358582 73.341309 56.780273
40.957916 73.341309 57.075073
41.358582 74.341309 56.339539
44.358582 72.040894 55.075073
44.358582 72.341309 54.943726
44.194366 72.341309 55.075073
44.358582 71.341309 55.381409
43.358582 71.525452 56.075073
43.358582 72.341309 55.739258
42.915070 72.341309 56.075073
45.358582 71.341309 54.570190
44.745941 71.341309 55.075073
44.358582 73.341309 54.456726
43.603485 73.341309 55.075073
43.358582 73.747192 55.075073
43.358582 74.341309 54.794373
43.020569 74.341309 55.075073
43.358582 73.341309 55.275757
42.384827 75.341309 55.075073
42.358582 76.341309 54.585327
41.748260 76.341309 55.075073
41.358582 74.937073 56.075073
41.358582 75.341309 55.879150
41.103821 75.341309 56.075073
41.358582 76.341309 55.393005
40.358582 76.341309 56.176819
40.358582 76.563293 56.075073
40.358582 77.341309 55.713257
39.893127 77.341309 56.075073
40.358582 78.341309 55.244080
39.358582 78.265442 56.075073
41.358582 77.012756 55.075073
41.358582 77.341309 54.908325
41.157471 77.341309 55.075073
41.358582 78.341309 54.412354
40.567780 78.341309 55.075073
40.358582 75.341309 56.637817
39.766907 75.341309 57.075073
39.358582 76.021362 57.075073
39.358582 76.341309 56.938232
39.183533 76.341309 57.075073
39.358582 75.341309 57.381409
