53.958538 43.630150 46.693764
52.699993 43.630150 47.565529
55.699993 46.630146 45.760963
54.699993 46.630146 46.501076
55.699993 46.103474 45.693764
54.699993 45.630146 46.379982
55.629131 45.630146 45.693764
54.699993 44.630146 46.265419
55.469402 44.630146 45.693764
54.699993 43.630150 46.151711
55.309307 43.630150 45.693764
55.699993 44.630146 45.512428
55.699993 43.630150 45.382362
56.546612 43.630150 44.693764
53.699993 42.630150 46.778542
52.699993 42.630150 47.466530
52.699993 41.630150 47.362282
53.676617 41.630150 46.693764
52.699993 40.630150 47.275917
53.556683 40.630150 46.693764
52.699993 39.630150 47.206764
53.454754 39.630150 46.693764
54.699993 42.630150 46.040810
55.157879 42.630150 45.693764
54.699993 41.630150 45.939125
55.023357 41.630150 45.693764
55.699993 42.630150 45.259743
56.392681 42.630150 44.693764
55.699993 41.630150 45.155067
56.263958 41.630150 44.693764
54.699993 40.630150 45.857826
54.918926 40.630150 45.693764
54.699993 39.630150 45.787148
55.699993 40.630150 45.073280
56.165447 40.630150 44.693764
55.699993 39.630150 45.007851
56.086712 39.630150 44.693764
53.699993 39.630150 46.519386
52.699993 38.630150 47.137856
53.354290 38.630150 46.693764
52.699993 37.630150 47.065590
53.246502 37.630150 46.693764
52.699993 36.630150 46.988197
53.131695 36.630150 46.693764
52.699993 35.630150 46.907936
53.014629 35.630150 46.693764
55.699993 38.630150 44.951759
56.017437 38.630150 44.693764
54.699993 38.630150 45.721596
55.699993 37.630150 44.878029
55.927166 37.630150 44.693764
54.699993 38.256187 45.693764
54.632488 37.630150 45.693764
53.699993 38.630150 46.447853
53.699993 37.630150 46.369606
55.699993 36.630150 44.791542
54.699993 36.630150 45.555519
54.699993 35.630150 45.469948
55.699993 35.630150 44.720680
53.699993 36.630150 46.284706
54.510296 36.630150 45.693764
53.699993 35.630150 46.199684
54.390362 35.630150 45.693764
48.699993 50.630146 50.906410
49.098003 50.630146 50.693764
48.699993 49.630146 50.769997
50.699993 50.630146 49.744789
51.699993 50.630146 49.124916
52.362408 50.630146 48.693764
51.699993 49.630146 48.967201
52.123394 49.630146 48.693764
50.699993 50.332233 49.693764
50.524212 49.630146 49.693764
49.699993 50.630146 50.344765
49.699993 49.630146 50.199623
51.699993 48.630146 48.839333
51.926373 48.630146 48.693764
50.699993 48.630146 49.464211
51.699993 47.630146 48.719154
50.699993 47.630146 49.347511
49.699993 48.630146 50.072060
50.316021 48.630146 49.693764
48.699993 49.040241 50.693764
48.601482 48.630146 50.693764
49.699993 47.630146 49.952675
50.125164 47.630146 49.693764
48.699993 47.630146 50.518959
47.699993 50.630146 51.454567
47.699993 49.630146 51.312904
47.699993 48.630146 51.175331
48.366619 47.630146 50.693764
50.699993 46.630146 49.230141
51.554913 46.630146 48.693764
51.699993 47.407185 48.693764
50.699993 45.630146 49.106850
51.367962 45.630146 48.693764
49.699993 46.630146 49.834694
49.931866 46.630146 49.693764
48.699993 46.630146 50.399391
49.699993 45.630146 49.713661
48.699993 45.630146 50.276894
50.699993 44.630146 48.975685
51.169537 44.630146 48.693764
50.699993 43.630150 48.855995
50.978252 43.630150 48.693764
48.699993 44.630146 50.148048
49.515789 44.630146 49.693764
48.699993 43.630150 50.036598
49.320354 43.630150 49.693764
49.699993 44.630146 49.581398
49.699993 43.630150 49.463478
48.139080 46.630146 50.693764
51.699993 45.630146 48.470253
51.699993 44.630146 48.344704
51.699993 43.630150 48.232521
52.501873 43.630150 47.693764
50.699993 42.630150 48.753029
49.157207 42.630150 49.693764
49.699993 42.630150 49.362587
50.699993 42.039391 48.693764
49.699993 41.630150 49.263344
50.634502 41.630150 48.693764
48.994305 41.630150 49.693764
49.699993 40.630150 49.154518
50.464031 40.630150 48.693764
49.699993 39.630150 49.059669
50.317913 39.630150 48.693764
50.226849 38.630150 48.693764
51.699993 42.630150 48.126991
52.348492 42.630150 47.693764
51.699993 41.630150 48.023354
52.190594 41.630150 47.693764
51.699993 40.630150 47.937843
52.062908 40.630150 47.693764
50.699993 40.630150 48.562416
51.699993 39.630150 47.869972
51.963665 39.630150 47.693764
50.699993 39.630150 48.484718
51.699993 38.630150 47.803383
50.699993 38.630150 48.426308
50.699993 37.630150 48.382179
51.699993 37.630150 47.741493
50.170025 37.630150 48.693764
51.699993 36.846947 47.693764
50.699993 36.630150 48.333656
51.677715 36.630150 47.693764
50.699993 35.630150 48.273720
51.574749 35.630150 47.693764
52.699993 34.630150 46.834511
52.906841 34.630150 46.693764
52.699993 33.630150 46.772926
55.699993 35.198814 44.693764
54.699993 34.630150 45.387611
55.645123 34.630150 44.693764
54.699993 33.630150 45.317665
55.548504 33.630150 44.693764
53.699993 34.630150 46.121559
54.278973 34.630150 45.693764
53.699993 33.630150 46.058632
54.191509 33.630150 45.693764
54.699993 32.630150 45.252663
55.457500 32.630150 44.693764
54.699993 31.630150 45.195473
55.387005 31.630150 44.693764
53.699993 32.630150 46.001259
54.110149 32.630150 45.693764
52.699993 32.630150 46.717995
53.699993 31.630150 45.946205
54.034527 31.630150 45.693764
52.699993 32.201195 46.693764
52.656658 31.630150 46.693764
54.699993 30.630152 45.150185
55.330853 30.630152 44.693764
54.699993 29.630152 45.103554
55.271526 29.630152 44.693764
53.699993 30.630152 45.891640
53.966290 30.630152 45.693764
52.573284 30.630152 46.693764
53.699993 29.630152 45.839088
53.896832 29.630152 45.693764
52.699993 29.630152 46.549355
54.699993 28.630152 45.054237
55.208660 28.630152 44.693764
54.699993 27.630152 44.995583
55.126995 27.630152 44.693764
53.699993 28.630152 45.794044
52.699993 28.630152 46.493690
52.699993 27.630152 46.421608
53.699993 27.630152 45.736671
54.699993 26.630152 44.921425
55.021770 26.630152 44.693764
54.699993 25.630152 44.844521
54.917339 25.630152 44.693764
53.699993 26.995142 45.693764
53.657207 26.630152 45.693764
53.541668 25.630152 45.693764
54.699993 24.630152 44.760231
51.475994 34.630150 47.693764
51.699993 34.630150 47.536110
51.699993 33.630150 47.476845
51.393047 33.630150 47.693764
51.699993 32.630150 47.423683
51.699993 31.630150 47.374245
68.699989 65.630142 30.760845
68.699989 64.630142 31.179241
68.923927 64.630142 30.693768
68.699989 65.783707 30.693768
68.613808 63.630142 31.693768
69.090553 63.630142 30.693768
68.699989 66.630142 30.266582
68.986305 66.630142 29.693768
69.214211 65.630142 29.693768
69.467323 66.630142 28.693768
69.699989 65.573441 28.693768
69.405312 64.630142 29.693768
69.567177 63.630142 29.693768
69.699989 64.630142 29.091167
69.866615 64.630142 28.693768
69.699989 63.630142 29.427776
70.021156 63.630142 28.693768
68.699989 62.630142 31.810284
68.699989 61.630142 32.060223
68.886940 61.630142 31.693768
68.699989 63.034134 31.693768
69.236488 62.630142 30.693768
69.367775 61.630142 30.693768
68.699989 60.630142 32.255169
68.983376 60.630142 31.693768
68.699989 59.630142 32.369183
69.041237 59.630142 31.693768
69.466103 60.630142 30.693768
69.533791 59.630142 30.693768
69.699989 62.689041 29.693768
69.699989 61.630142 29.971661
69.832314 61.630142 29.693768
70.157936 62.630142 28.693768
70.278603 61.630142 28.693768
69.699989 60.630142 30.181316
69.932655 60.630142 29.693768
69.699989 59.630142 30.337505
70.014015 59.630142 29.693768
70.386757 60.630142 28.693768
70.483131 59.630142 28.693768
68.699989 58.630146 32.437786
69.075844 58.630146 31.693768
68.699989 57.630146 32.476788
69.094032 57.630146 31.693768
69.573769 58.630146 30.693768
69.596352 57.630146 30.693768
68.699989 56.630146 32.484417
69.107399 56.630146 31.693768
68.699989 55.630146 32.492046
69.115517 55.630146 31.693768
69.624184 56.630146 30.693768
69.638161 55.630146 30.693768
69.699989 58.630146 30.426861
70.066444 58.630146 29.693768
69.699989 57.630146 30.477276
70.099159 57.630146 29.693768
70.553139 58.630146 28.693768
70.600807 57.630146 28.693768
70.132423 56.630146 29.693768
70.154640 55.630146 29.693768
70.640663 56.630146 28.693768
70.675331 55.630146 28.693768
68.699989 54.630146 32.481243
69.111366 54.630146 31.693768
68.699989 53.630146 32.408978
69.087135 53.630146 31.693768
69.639442 54.630146 30.693768
69.630470 53.630146 30.693768
68.699989 52.630146 32.266827
69.028053 52.630146 31.693768
68.699989 51.630146 32.076641
68.933815 51.630146 31.693768
69.598000 52.630146 30.693768
69.536232 51.630146 30.693768
70.169899 54.630146 29.693768
70.175575 53.630146 29.693768
70.699989 54.779743 28.693768
70.699989 54.630146 28.701458
70.699989 53.630146 28.728558
69.699989 52.630146 30.508770
70.164162 52.630146 29.693768
69.699989 51.630146 30.413677
70.129372 51.630146 29.693768
70.699989 52.630146 28.725689
70.696571 51.630146 28.693768
68.699989 50.630146 31.861736
69.438087 50.630146 30.693768
68.699989 49.865131 31.693768
69.313026 49.630146 30.693768
68.668190 49.630146 31.693768
68.699989 48.630146 31.452251
69.189125 48.630146 30.693768
68.699989 47.630146 31.285992
69.076820 47.630146 30.693768
69.699989 50.630146 30.268230
70.061012 50.630146 29.693768
69.699989 49.630146 30.094158
69.965187 49.630146 29.693768
70.652382 50.630146 28.693768
70.582191 49.630146 28.693768
69.699989 48.630146 29.925396
69.857582 48.630146 29.693768
69.699989 47.630146 29.763897
70.488258 48.630146 28.693768
70.386391 47.630146 28.693768
68.699989 46.630146 31.106182
68.954994 46.630146 30.693768
68.699989 45.630146 30.928326
68.841530 45.630146 30.693768
68.699989 44.630146 30.781719
69.699989 47.195942 29.693768
69.624672 46.630146 29.693768
69.504738 45.630146 29.693768
70.281227 46.630146 28.693768
69.699989 45.630146 29.418011
70.177773 45.630146 28.693768
69.408058 44.630146 29.693768
68.699989 44.026325 30.693768
69.318459 43.630150 29.693768
68.672768 43.630150 30.693768
69.699989 44.630146 29.283001
70.092567 44.630146 28.693768
69.699989 43.630150 29.160320
70.018044 43.630150 28.693768
68.628517 42.630150 30.693768
69.268959 42.630150 29.693768
68.617775 41.630150 30.693768
69.270424 41.630150 29.693768
69.699989 42.630150 29.091473
69.974342 42.630150 28.693768
69.699989 41.630150 29.098064
69.981789 41.630150 28.693768
68.614174 40.630150 30.693768
69.288795 40.630150 29.693768
68.619118 39.630150 30.693768
69.320839 39.630150 29.693768
69.699989 40.630150 29.136089
70.016823 40.630150 28.693768
69.699989 39.630150 29.192974
70.065651 39.630150 28.693768
68.638405 38.630150 30.693768
69.365395 38.630150 29.693768
68.659950 37.630150 30.693768
69.409950 37.630150 29.693768
69.699989 38.630150 29.261028
70.123756 38.630150 28.693768
69.699989 37.630150 29.324871
70.182411 37.630150 28.693768
68.673500 36.630150 30.693768
69.451820 36.630150 29.693768
68.693336 35.630150 30.693768
69.494484 35.630150 29.693768
69.699989 36.630150 29.387066
70.242287 36.630150 28.693768
69.699989 35.630150 29.447308
70.301918 35.630150 28.693768
69.699989 66.630142 28.157513
69.913185 66.630142 27.693768
70.124367 65.630142 27.693768
70.331215 66.630142 26.693768
70.531349 65.630142 26.693768
70.699989 64.594009 26.693768
70.699989 63.630142 27.069744
70.843666 63.630142 26.693768
70.298927 64.630142 27.693768
70.451332 63.630142 27.693768
70.699989 66.630142 25.706829
70.699989 65.630142 26.243328
70.901161 65.630142 25.693768
70.699989 66.651016 25.693768
71.050819 66.630142 24.693768
71.239540 65.630142 24.693768
71.061256 64.630142 25.693768
71.211037 63.630142 25.693768
71.401588 64.630142 24.693768
71.559059 63.630142 24.693768
70.699989 62.630142 27.410381
70.982521 62.630142 26.693768
71.109718 61.630142 26.693768
70.699989 61.640030 27.693768
70.584450 62.630142 27.693768
70.699989 60.630142 27.958538
70.817299 60.630142 27.693768
70.699989 59.630142 28.196758
70.926857 59.630142 27.693768
71.234413 60.630142 26.693768
71.356606 59.630142 26.693768
71.363441 62.630142 25.693768
71.505409 61.630142 25.693768
71.699989 62.740128 24.693768
71.699989 61.630142 25.195721
71.872780 61.630142 24.693768
71.639015 60.630142 25.693768
71.699989 60.197708 25.693768
71.699989 59.630142 25.854900
72.020668 60.630142 24.693768
72.162148 59.630142 24.693768
71.369423 66.630142 23.693769
71.550087 65.630142 23.693769
71.660133 66.630142 22.693769
71.699989 66.423355 22.693769
71.699989 65.630142 23.196211
71.838356 65.630142 22.693769
71.699989 64.703201 23.693769
71.699989 63.630142 24.238508
71.884560 63.630142 23.693769
72.008766 64.630142 22.693769
72.185036 63.630142 22.693769
71.929237 66.630142 21.693769
72.111061 65.630142 21.693769
72.167885 66.630142 20.693769
72.353065 65.630142 20.693769
72.282509 64.630142 21.693769
72.455544 63.630142 21.693769
72.533119 64.630142 20.693769
72.699989 63.721695 20.693769
72.699989 60.586624 22.693769
72.699989 59.630142 23.168196
72.851112 59.630142 22.693769
72.699989 62.328140 21.693769
72.699989 61.630142 22.104963
72.828468 61.630142 21.693769
72.640175 62.630142 21.693769
72.923805 62.630142 20.693769
73.130714 61.630142 20.693769
73.008034 60.630142 21.693769
73.185768 59.630142 21.693769
73.331398 60.630142 20.693769
73.534462 59.630142 20.693769
72.057167 62.630142 23.693769
72.218849 61.630142 23.693769
72.364662 62.630142 22.693769
72.532875 61.630142 22.693769
72.371864 60.630142 23.693769
72.517677 59.630142 23.693769
70.699989 58.630146 28.367352
71.014992 58.630146 27.693768
70.699989 57.630146 28.479900
71.082191 57.630146 27.693768
71.464760 58.630146 26.693768
71.555397 57.630146 26.693768
71.137428 56.630146 27.693768
71.188210 55.630146 27.693768
71.630653 56.630146 26.693768
71.699989 55.543110 26.693768
71.699989 58.630146 26.127972
71.889503 58.630146 25.693768
71.699989 57.630146 26.359356
72.004066 57.630146 25.693768
72.293739 58.630146 24.693768
72.423927 57.630146 24.693768
72.105568 56.630146 25.693768
72.191444 55.630146 25.693768
72.544716 56.630146 24.693768
72.647743 55.630146 24.693768
72.699989 53.630146 24.848919
72.699989 52.630146 24.893353
72.791847 52.630146 24.693768
72.699989 51.630146 24.899578
72.798561 51.630146 24.693768
71.229591 54.630146 27.693768
71.251503 53.630146 27.693768
71.699989 54.630146 26.790569
71.699989 53.630146 26.845684
71.255043 52.630146 27.693768
71.236732 51.630146 27.693768
71.699989 52.630146 26.858074
71.699989 51.630146 26.825665
72.255653 54.630146 25.693768
72.287819 53.630146 25.693768
72.699989 54.977558 24.693768
72.699989 54.630146 24.754498
72.299721 52.630146 25.693768
72.292213 51.630146 25.693768
72.699989 58.344501 23.693769
72.699989 57.630146 23.956770
72.804054 57.630146 23.693769
72.656044 58.630146 23.693769
73.006264 58.630146 22.693769
73.176186 57.630146 22.693769
72.699989 56.630146 24.297956
72.950539 56.630146 23.693769
73.077187 55.630146 23.693769
73.355080 56.630146 22.693769
73.512306 55.630146 22.693769
73.367897 58.630146 21.693769
73.562050 57.630146 21.693769
73.699989 58.808125 20.693769
73.699989 58.630146 20.814009
73.699989 57.630146 21.359358
73.952065 57.630146 20.693769
73.699989 56.919880 21.693769
73.699989 56.630146 21.833845
73.699989 55.630146 22.236616
73.940163 55.630146 21.693769
74.169106 56.630146 20.693769
74.374001 55.630146 20.693769
73.176796 54.630146 23.693769
73.248573 53.630146 23.693769
73.637856 54.630146 22.693769
73.699989 54.090839 22.693769
73.699989 53.630146 22.787031
73.299721 52.630146 23.693769
73.326332 51.630146 23.693769
73.699989 52.630146 22.941267
73.822426 52.630146 22.693769
73.699989 51.630146 23.015059
73.866798 51.630146 22.693769
74.093971 54.630146 21.693769
74.233742 53.630146 21.693769
74.550331 54.630146 20.693769
74.699989 53.709248 20.693769
74.699989 52.630146 20.999067
74.846291 52.630146 20.693769
74.699989 51.630146 21.165937
74.945534 51.630146 20.693769
74.345680 52.630146 21.693769
74.413124 51.630146 21.693769
72.699989 66.082718 18.693769
72.699989 65.630142 19.139936
72.794777 65.630142 18.693769
72.699989 64.982925 19.693769
72.699989 64.630142 19.983564
72.778053 64.630142 19.693769
72.988197 63.630142 19.693769
73.022682 64.630142 18.693769
73.261452 63.630142 18.693769
72.699989 66.996048 17.693769
72.699989 66.630142 18.093794
72.786659 66.630142 17.693769
73.013283 65.630142 17.693769
72.986061 66.630142 16.693771
73.231239 65.630142 16.693771
73.263466 64.630142 17.693769
73.533119 63.630142 17.693769
73.507240 64.630142 16.693771
73.699989 64.001907 16.693771
73.699989 63.630142 17.105879
73.804909 63.630142 16.693771
72.385353 66.630142 19.693769
72.575844 65.630142 19.693769
72.585854 66.630142 18.693769
73.214272 62.630142 19.693769
73.443703 61.630142 19.693769
73.513344 62.630142 18.693769
73.699989 61.901260 18.693769
73.699989 61.630142 18.901838
73.761940 61.630142 18.693769
73.699989 60.475052 19.693769
73.699989 59.630142 20.194319
73.887489 59.630142 19.693769
74.001137 60.630142 18.693769
74.250648 59.630142 18.693769
73.699989 62.995193 17.693769
73.699989 62.630142 18.039167
73.807533 62.630142 17.693769
74.081093 61.630142 17.693769
74.106178 62.630142 16.693771
74.399269 61.630142 16.693771
74.699989 60.568924 16.693771
74.699989 59.630142 17.443098
74.976662 59.630142 16.693771
74.343239 60.630142 17.693769
74.606361 59.630142 17.693769
73.181923 66.630142 15.693770
73.449989 65.630142 15.693770
73.395790 66.630142 14.693771
73.699989 65.580215 14.693771
73.699989 64.630142 15.874312
74.080421 63.630142 15.693770
74.016212 64.630142 14.693771
74.374611 63.630142 14.693771
73.629555 66.630142 13.693771
73.699989 66.415176 13.693771
73.948830 65.630142 13.693771
73.699989 67.161880 12.693771
73.699989 66.630142 13.432602
73.888771 66.630142 12.693771
74.240883 65.630142 12.693771
74.699989 64.397903 12.693771
74.699989 63.630142 13.617599
74.998085 63.630142 12.693771
74.305580 64.630142 13.693771
74.607643 64.630142 12.693771
75.060158 61.630142 14.693771
74.699989 62.630142 14.743575
74.699989 61.691299 15.693770
74.406349 62.630142 15.693770
75.039711 60.630142 15.693770
75.362221 59.630142 15.693770
75.408607 60.630142 14.693771
75.699989 59.782425 14.693771
75.042763 62.630142 13.693771
74.699989 63.557144 13.693771
75.411049 61.630142 13.693771
75.385170 62.630142 12.693771
75.699989 61.630142 12.880905
75.699989 60.630142 13.879135
76.138161 59.630142 13.693771
76.143898 60.630142 12.693771
76.506752 59.630142 12.693771
76.699989 53.475300 16.693771
76.699989 52.630146 17.122236
76.899391 52.630146 16.693771
76.603004 51.630146 17.693769
77.122841 51.630146 16.693771
76.699989 56.630146 14.701644
76.699989 55.630146 15.420089
76.999428 55.630146 14.693771
76.699989 56.639179 14.693771
76.699989 57.948994 13.693771
76.699989 57.630146 13.923203
76.795570 57.630146 13.693771
76.699989 59.040302 12.693771
76.699989 58.630146 13.123459
76.849098 58.630146 12.693771
77.187660 57.630146 12.693771
77.111427 56.630146 13.693771
77.431068 55.630146 13.693771
77.525124 56.630146 12.693771
77.699989 56.124836 12.693771
77.699989 55.630146 13.083298
77.849709 55.630146 12.693771
76.699989 55.164021 15.693770
76.699989 54.630146 16.026474
76.855385 54.630146 15.693770
77.132545 53.630146 15.693770
77.301247 54.630146 14.693771
77.605873 53.630146 14.693771
77.401222 52.630146 15.693770
77.699989 51.444538 15.693770
77.699989 53.287922 14.693771
77.699989 52.630146 15.109359
77.894203 52.630146 14.693771
78.176674 51.630146 14.693771
77.699989 54.767963 13.693771
77.699989 53.630146 14.477402
78.062904 53.630146 13.693771
78.177956 54.630146 12.693771
78.499977 53.630146 12.693771
78.699989 52.993977 12.693771
78.699989 52.630146 12.975754
78.817543 52.630146 12.693771
78.699989 51.517109 13.693771
79.138100 51.630146 12.693771
78.373573 52.630146 13.693771
74.124306 58.630146 19.693769
74.358192 57.630146 19.693769
74.506081 58.630146 18.693769
74.699989 57.861652 18.693769
74.699989 57.630146 18.840925
74.699989 56.139606 19.693769
74.699989 55.630146 19.927351
74.806984 55.630146 19.693769
74.699989 56.630146 19.427900
75.008034 56.630146 18.693769
75.250160 55.630146 18.693769
74.587868 56.630146 19.693769
74.699989 59.271992 17.693769
74.699989 58.630146 18.172102
74.883583 58.630146 17.693769
75.157570 57.630146 17.693769
75.276649 58.630146 16.693771
75.571754 57.630146 16.693771
75.431679 56.630146 17.693769
75.699989 55.599689 17.693769
75.699989 57.159443 16.693771
75.699989 56.630146 17.084639
75.859840 56.630146 16.693771
76.143837 55.630146 16.693771
74.699989 54.630146 20.350203
75.007790 54.630146 19.693769
75.192848 53.630146 19.693769
75.480080 54.630146 18.693769
75.699989 53.551716 18.693769
75.353676 52.630146 19.693769
75.496681 51.630146 19.693769
75.699989 52.630146 19.038679
75.875648 52.630146 18.693769
75.699989 51.630146 19.341413
76.059731 51.630146 18.693769
75.699989 54.630146 18.206709
75.949562 54.630146 17.693769
76.189796 53.630146 17.693769
76.414650 54.630146 16.693771
76.405128 52.630146 17.693769
75.699989 58.554401 15.693770
75.699989 57.630146 16.358810
75.989174 57.630146 15.693770
76.083107 58.630146 14.693771
76.403053 57.630146 14.693771
76.296425 56.630146 15.693770
76.578896 55.630146 15.693770
76.479591 58.630146 13.693771
72.699989 50.630146 24.880779
71.199745 50.630146 27.693768
70.699989 49.630146 28.481365
71.141151 49.630146 27.693768
71.699989 50.630146 26.759930
71.699989 49.893391 26.693768
71.687599 49.630146 26.693768
70.699989 48.630146 28.319500
71.058632 48.630146 27.693768
70.699989 47.630146 28.160137
70.978127 47.630146 27.693768
71.626686 48.630146 26.693768
71.574501 47.630146 26.693768
72.267433 50.630146 25.693768
72.237953 49.630146 25.693768
72.699989 49.630146 24.863750
72.205910 48.630146 25.693768
71.699989 47.630146 26.476177
72.183815 47.630146 25.693768
72.699989 48.630146 24.850262
72.699989 47.630146 24.853436
70.699989 46.630146 28.021832
70.906044 46.630146 27.693768
70.699989 45.630146 27.896465
70.833107 45.630146 27.693768
71.533913 46.630146 26.693768
71.489601 45.630146 26.693768
70.699989 44.630146 27.802715
71.453957 44.630146 26.693768
71.431313 43.630150 26.693768
70.699989 43.630150 27.736858
71.699989 46.630146 26.422039
72.172157 46.630146 25.693768
71.699989 45.630146 26.367290
72.155556 45.630146 25.693768
72.699989 46.630146 24.860577
72.699989 45.630146 24.856121
71.699989 44.630146 26.324932
72.137367 44.630146 25.693768
71.699989 43.630150 26.298016
72.121193 43.630150 25.693768
72.699989 44.630146 24.851482
72.699989 43.630150 24.839642
73.343483 50.630146 23.693769
73.365944 49.630146 23.693769
73.699989 50.630146 23.075911
73.909889 50.630146 22.693769
73.699989 49.630146 23.141890
73.960243 49.630146 22.693769
73.386818 48.630146 23.693769
73.407692 47.630146 23.693769
73.699989 48.630146 23.194685
74.001076 48.630146 22.693769
73.699989 47.630146 23.240095
74.035927 47.630146 22.693769
74.699989 50.630146 21.318098
75.050697 50.630146 20.693769
74.699989 49.630146 21.459394
75.156898 49.630146 20.693769
74.483620 50.630146 21.693769
74.558754 49.630146 21.693769
74.618629 48.630146 21.693769
75.249550 48.630146 20.693769
74.670509 47.630146 21.693769
75.329811 47.630146 20.693769
73.418495 46.630146 23.693769
73.423317 45.630146 23.693769
73.699989 46.630146 23.260054
74.055458 46.630146 22.693769
73.699989 45.630146 23.270430
74.071754 45.630146 22.693769
73.444069 44.630146 23.693769
73.470863 43.630150 23.693769
73.699989 44.630146 23.314375
74.112099 44.630146 22.693769
73.699989 43.630150 23.371931
74.175392 43.630150 22.693769
74.706154 46.630146 21.693769
75.394508 46.630146 20.693769
74.699989 45.630146 21.761641
75.464455 45.630146 20.693769
74.699989 44.630146 21.847761
74.699989 43.630150 21.965254
74.898415 43.630150 21.693769
75.546303 44.630146 20.693769
75.650490 43.630150 20.693769
76.699989 37.786827 20.693769
76.699989 36.630150 20.983442
76.949989 36.630150 20.693769
76.699989 35.630150 21.237593
77.182594 35.630150 20.693769
72.699989 41.630150 24.852764
72.699989 40.630150 24.938580
72.869972 40.630150 24.693768
72.699989 39.630150 25.104107
72.995461 39.630150 24.693768
71.416359 42.630150 26.693768
70.699989 42.630150 27.697979
70.699989 41.630150 27.710247
71.421791 41.630150 26.693768
70.699989 40.630150 27.765423
71.462135 40.630150 26.693768
70.699989 39.630150 27.843731
71.544533 39.630150 26.693768
71.699989 42.630150 26.277508
72.107521 42.630150 25.693768
71.699989 41.630150 26.281841
72.112831 41.630150 25.693768
72.699989 42.630150 24.828472
71.699989 40.630150 26.343792
72.160194 40.630150 25.693768
71.699989 39.630150 26.474529
72.268166 39.630150 25.693768
72.699989 38.630150 25.318951
73.164406 38.630150 24.693768
72.699989 37.630150 25.521832
73.337013 37.630150 24.693768
72.699989 36.568871 25.693768
73.498573 36.630150 24.693768
72.699989 35.630150 25.812725
73.646278 35.630150 24.693768
70.699989 38.630150 27.937481
70.885841 38.630150 27.693768
70.699989 37.630150 28.030010
70.968483 37.630150 27.693768
71.657082 38.630150 26.693768
71.699989 38.285484 26.693768
71.699989 37.630150 26.787090
70.699989 36.630150 28.118328
71.048073 36.630150 27.693768
70.699989 35.630150 28.200054
71.118874 35.630150 27.693768
71.699989 36.630150 26.909954
71.876564 36.630150 26.693768
71.699989 35.630150 27.006573
71.961769 35.630150 26.693768
72.416847 38.630150 25.693768
72.564674 37.630150 25.693768
73.503151 42.630150 23.693769
73.559853 41.630150 23.693769
73.699989 42.630150 23.434553
74.260353 42.630150 22.693769
73.699989 41.630150 23.518843
74.362648 41.630150 22.693769
73.653725 40.630150 23.693769
73.699989 40.281883 23.693769
73.699989 39.630150 23.801558
74.481911 40.630150 22.693769
74.621193 39.630150 22.693769
74.699989 42.630150 22.116743
75.027321 42.630150 21.693769
74.699989 41.630150 22.274031
75.172829 41.630150 21.693769
75.699989 43.248863 20.693769
75.699989 42.630150 20.831526
75.699989 41.630150 21.049788
75.977577 41.630150 20.693769
74.699989 40.630150 22.429121
75.318947 40.630150 21.693769
75.470924 39.630150 21.693769
75.699989 40.630150 21.244246
76.143776 40.630150 20.693769
75.699989 39.630150 21.431623
76.314186 39.630150 20.693769
74.699989 38.630150 22.787031
74.699989 37.630150 22.994246
74.952858 37.630150 22.693769
73.699989 38.630150 24.003401
73.953041 38.630150 23.693769
73.699989 37.630150 24.222639
74.124489 37.630150 23.693769
74.699989 39.093468 22.693769
74.699989 36.630150 23.224043
75.155128 36.630150 22.693769
74.699989 35.630150 23.456892
75.369301 35.630150 22.693769
73.699989 36.630150 24.439680
74.309853 36.630150 23.693769
74.497719 35.630150 23.693769
75.642555 38.630150 21.693769
75.699989 38.340355 21.693769
75.699989 37.630150 21.844160
76.513893 38.630150 20.693769
75.699989 36.630150 22.077192
76.049965 36.630150 21.693769
75.699989 35.630150 22.323164
76.278297 35.630150 21.693769
76.699989 50.630146 17.853804
76.699989 49.630146 18.150923
76.972206 49.630146 17.693769
76.699989 51.089619 17.693769
77.352028 50.630146 16.693771
77.571266 49.630146 16.693771
76.699989 48.630146 18.418440
77.145241 48.630146 17.693769
76.699989 47.469685 18.693769
77.324623 47.630146 17.693769
77.699989 48.973225 16.693771
77.699989 48.630146 16.814497
77.699989 47.630146 17.132795
77.970436 47.630146 16.693771
76.699989 46.630146 18.868330
76.699989 45.630146 19.036848
76.933754 45.630146 18.693769
76.699989 44.630146 19.188765
77.061378 44.630146 18.693769
76.699989 43.630150 19.349714
77.210609 43.630150 18.693769
77.499550 46.630146 17.693769
77.665016 45.630146 17.693769
77.699989 46.630146 17.411482
78.174232 46.630146 16.693771
78.378334 45.630146 16.693771
77.699989 45.408588 17.693769
77.699989 44.630146 17.866865
77.835915 44.630146 17.693769
77.699989 43.630150 18.086348
78.021156 43.630150 17.693769
78.588539 44.630146 16.693771
78.699989 44.125080 16.693771
78.699989 43.630150 16.831587
77.699989 50.630146 16.055893
77.909279 50.630146 15.693770
77.699989 49.630146 16.463181
78.153297 49.630146 15.693770
78.450172 50.630146 14.693771
78.699989 49.655109 14.693771
78.699989 48.630146 15.146163
78.956886 48.630146 14.693771
78.600014 47.630146 15.693770
79.211952 47.630146 14.693771
78.379677 48.630146 15.693770
78.699989 50.630146 14.199509
78.957924 50.630146 13.693771
79.243568 49.630146 13.693771
79.454262 50.630146 12.693771
79.699989 49.850300 12.693771
79.699989 49.630146 12.829453
79.532570 48.630146 13.693771
79.699989 48.053425 13.693771
79.699989 47.630146 13.876022
79.811256 47.630146 13.693771
79.699989 48.630146 13.408920
80.085670 48.630146 12.693771
80.392677 47.630146 12.693771
80.699989 46.607929 12.693771
80.699989 45.630146 13.216843
81.000710 45.630146 12.693771
80.699989 44.544880 13.693771
80.699989 43.630150 14.086899
80.969887 43.630150 13.693771
80.699989 44.630146 13.654526
81.314857 44.630146 12.693771
81.699989 43.459557 12.693771
78.699989 47.165180 15.693770
78.699989 46.630146 15.887496
78.827065 46.630146 15.693770
78.699989 45.630146 16.220016
79.061073 45.630146 15.693770
79.472206 46.630146 14.693771
79.699989 45.778584 14.693771
79.305336 44.630146 15.693770
79.557472 43.630150 15.693770
79.699989 44.630146 15.141097
80.004005 44.630146 14.693771
79.699989 43.630150 15.505111
80.288612 43.630150 14.693771
79.699989 46.630146 14.322372
80.099648 46.630146 13.693771
80.394264 45.630146 13.693771
75.636635 50.630146 19.693769
75.699989 50.182880 19.693769
75.699989 49.630146 19.802046
76.232399 50.630146 18.693769
76.392372 49.630146 18.693769
75.699989 48.630146 19.985395
75.899391 48.630146 19.693769
75.699989 47.630146 20.133223
76.012794 47.630146 19.693769
76.540565 48.630146 18.693769
75.699989 46.630146 20.248030
76.113625 46.630146 19.693769
75.699989 45.630146 20.360640
76.211159 45.630146 19.693769
75.699989 44.630146 20.481001
76.310707 44.630146 19.693769
76.429848 43.630150 19.693769
76.589394 42.630150 19.693769
77.393593 42.630150 18.693769
76.699989 42.047203 19.693769
77.599953 41.630150 18.693769
76.699989 41.630150 19.785383
76.699989 40.630150 19.996321
76.952492 40.630150 19.693769
76.699989 39.630150 20.213240
77.146156 39.630150 19.693769
77.699989 41.113121 18.693769
77.699989 40.630150 18.810102
77.699989 39.630150 19.053022
78.007118 39.630150 18.693769
78.699989 42.630150 17.115644
79.030190 42.630150 16.693771
78.699989 41.630150 17.388777
79.264565 41.630150 16.693771
77.699989 42.630150 18.324995
78.228188 42.630150 17.693769
78.446449 41.630150 17.693769
78.699989 40.443260 17.693769
78.699989 39.630150 17.898115
78.876015 39.630150 17.693769
79.499245 40.630150 16.693771
79.699989 39.788719 16.693771
76.699989 38.630150 20.468550
77.376137 38.630150 19.693769
77.608803 37.630150 19.693769
77.699989 38.630150 19.323042
78.241859 38.630150 18.693769
78.478310 37.630150 18.693769
78.716347 36.630150 18.693769
78.699989 35.630150 18.983320
78.953041 35.630150 18.693769
78.699989 36.697289 18.693769
77.699989 37.205833 19.693769
77.699989 36.630150 19.843733
77.699989 35.630150 20.106611
78.069130 35.630150 19.693769
78.699989 38.630150 18.166059
79.110573 38.630150 17.693769
78.699989 37.630150 18.437361
79.356911 37.630150 17.693769
79.699989 38.630150 17.021345
79.978798 38.630150 16.693771
79.699989 37.630150 17.309431
80.235207 37.630150 16.693771
79.606606 36.630150 17.693769
79.699989 36.282066 17.693769
79.699989 35.630150 17.862593
79.854286 35.630150 17.693769
80.497597 36.630150 16.693771
80.699989 35.921349 16.693771
80.699989 35.630150 16.778364
80.699989 42.142296 14.693771
80.699989 41.630150 14.870589
80.828529 41.630150 14.693771
80.699989 40.630150 15.215682
81.103615 40.630150 14.693771
80.571754 39.630150 15.693770
81.390785 39.630150 14.693771
80.699989 42.630150 14.501389
81.279152 42.630150 13.693771
81.584572 41.630150 13.693771
81.699989 42.630150 13.113144
81.981789 42.630150 12.693771
82.325600 41.630150 12.693771
82.699989 40.584679 12.693771
82.699989 39.630150 13.127975
83.052284 39.630150 12.693771
81.699989 41.240318 13.693771
81.699989 40.630150 13.943771
81.901588 40.630150 13.693771
81.699989 39.630150 14.323227
82.229103 39.630150 13.693771
79.699989 43.038658 15.693770
79.699989 42.630150 15.834273
79.699989 41.630150 16.143356
80.061562 41.630150 15.693770
80.568214 42.630150 14.693771
79.699989 40.630150 16.445053
80.316689 40.630150 15.693770
80.699989 38.630150 15.846419
80.699989 37.630150 16.150742
81.109169 37.630150 15.693770
80.699989 39.109093 15.693770
81.699989 38.597862 14.693771
81.699989 37.630150 15.032027
81.999245 37.630150 14.693771
80.699989 36.630150 16.460312
81.398903 36.630150 15.693770
81.699989 35.653404 15.693770
81.699989 36.630150 15.366683
82.319740 36.630150 14.693771
82.699989 35.505577 14.693771
82.699989 38.218529 13.693771
82.699989 37.630150 13.915390
82.902016 37.630150 13.693771
82.699989 38.630150 13.532394
83.435097 38.630150 12.693771
83.699989 37.964317 12.693771
83.699989 37.630150 12.831284
82.559914 38.630150 13.693771
82.699989 36.630150 14.287033
83.267738 36.630150 13.693771
83.699989 35.468712 13.693771
83.699989 36.630150 13.250839
84.233498 36.630150 12.693771
84.655495 35.630150 12.693771
60.699989 66.324295 41.693764
60.699989 65.630142 41.875465
60.878212 65.630142 41.693764
60.610088 66.630142 41.693764
61.545082 66.630142 40.693764
61.699989 66.122147 40.693764
61.699989 65.630142 40.834816
60.699989 64.630142 42.104225
61.111122 64.630142 41.693764
60.699989 63.630142 42.281105
61.296669 63.630142 41.693764
61.699989 64.630142 41.093117
62.071999 64.630142 40.693764
61.699989 63.630142 41.290016
62.269264 63.630142 40.693764
60.699989 62.630142 42.428078
61.449440 62.630142 41.693764
60.699989 61.630142 42.547707
61.571632 61.630142 41.693764
61.699989 62.630142 41.444740
62.427467 62.630142 40.693764
62.551857 61.630142 40.693764
60.639080 60.630142 42.693764
61.658669 60.630142 41.693764
60.699989 59.603535 42.693764
61.699989 59.630142 41.707375
61.699989 59.955460 41.693764
62.638222 60.630142 40.693764
62.699989 59.471149 40.693764
64.699989 66.630142 36.849586
64.699989 65.630142 37.245033
65.082802 65.630142 36.693764
64.592934 64.630142 37.693764
65.328346 64.630142 36.693764
64.699989 64.143570 37.693764
65.551003 63.630142 36.693764
64.699989 63.630142 37.817726
62.699989 66.630142 39.385963
63.272499 66.630142 38.693764
63.560280 65.630142 38.693764
62.699989 65.706314 39.693764
61.699989 66.630142 40.520485
62.435219 66.630142 39.693764
62.699989 64.630142 40.004616
62.970619 64.630142 39.693764
62.699989 63.630142 40.231361
63.178200 63.630142 39.693764
63.699989 65.076859 38.693764
63.699989 64.630142 38.829811
63.699989 63.630142 39.082008
64.016762 63.630142 38.693764
63.699989 66.630142 38.152687
64.065895 66.630142 37.693764
63.699989 65.630142 38.516090
64.355385 65.630142 37.693764
64.699989 66.947098 36.693764
64.699989 62.630142 38.048622
64.975441 62.630142 37.693764
64.699989 61.630142 38.235207
65.127846 61.630142 37.693764
65.699989 62.850845 36.693764
65.699989 62.630142 36.752296
65.699989 61.630142 36.960487
65.893837 61.630142 36.693764
64.699989 60.630142 38.371864
65.244057 60.630142 37.693764
64.699989 59.630142 38.473122
65.326698 59.630142 37.693764
65.699989 60.630142 37.114723
66.006386 60.630142 36.693764
65.699989 59.630142 37.219948
66.082802 59.630142 36.693764
62.699989 62.630142 40.406166
63.346230 62.630142 39.693764
62.699989 61.630142 40.539345
63.480873 61.630142 39.693764
63.699989 62.630142 39.285622
64.192238 62.630142 38.693764
63.699989 61.630142 39.445656
64.336769 61.630142 38.693764
63.577553 60.630142 39.693764
63.642494 59.630142 39.693764
64.443153 60.630142 38.693764
64.522926 59.630142 38.693764
58.592510 66.630142 43.693764
59.622540 66.630142 42.693764
59.699993 66.341690 42.693764
59.699993 65.630142 42.859291
59.873760 65.630142 42.693764
58.699993 66.185745 43.693764
58.699993 65.630142 43.808693
57.699993 66.630142 44.543922
58.699993 64.630142 43.995277
59.026348 64.630142 43.693764
58.699993 63.630142 44.155006
59.203716 63.630142 43.693764
59.699993 64.630142 43.065041
60.096172 64.630142 42.693764
59.699993 63.630142 43.234108
60.276409 63.630142 42.693764
58.699993 62.630142 44.294228
59.360088 62.630142 43.693764
58.699993 61.630142 44.394691
59.481853 61.630142 43.693764
59.699993 62.630142 43.379372
60.427776 62.630142 42.693764
59.699993 61.630142 43.493690
60.549480 61.630142 42.693764
58.699993 60.630142 44.459450
59.564434 60.630142 43.693764
58.699993 59.630142 44.506447
59.620037 59.630142 43.693764
61.699989 58.630146 41.743568
60.699989 58.630146 42.728981
61.699989 57.630146 41.750099
60.699989 57.630146 42.725868
62.699989 58.630146 40.729591
62.699989 57.630146 40.749001
60.699989 57.086994 42.693764
61.699989 56.630146 41.704079
60.654156 56.630146 42.693764
60.552593 55.630146 42.693764
61.637917 55.630146 41.693764
62.699989 56.630146 40.710548
62.699989 56.371357 40.693764
62.650002 55.630146 40.693764
60.699989 54.630146 42.474464
61.555153 54.630146 41.693764
60.699989 53.630146 42.378029
61.452431 53.630146 41.693764
62.580360 54.630146 40.693764
61.699989 53.630146 41.460793
62.478981 53.630146 40.693764
60.699989 52.630146 42.291176
61.343605 52.630146 41.693764
60.699989 51.630146 42.186256
61.219215 51.630146 41.693764
61.699989 52.630146 41.348549
62.337440 52.630146 40.693764
61.699989 51.630146 41.219337
62.202553 51.630146 40.693764
64.699989 58.630146 38.528236
65.367409 58.630146 37.693764
64.699989 57.630146 38.526405
65.367836 57.630146 37.693764
65.699989 58.630146 37.268959
66.115456 58.630146 36.693764
65.699989 57.630146 37.272133
66.117348 57.630146 36.693764
64.699989 56.630146 38.477882
65.338356 56.630146 37.693764
64.699989 55.630146 38.407326
65.283607 55.630146 37.693764
65.699989 56.630146 37.240456
66.101784 56.630146 36.693764
65.699989 55.630146 37.174538
66.058937 55.630146 36.693764
63.685158 58.630146 39.693764
63.691444 57.630146 39.693764
64.567360 58.630146 38.693764
64.565712 57.630146 38.693764
63.643959 56.630146 39.693764
63.579750 55.630146 39.693764
64.524391 56.630146 38.693764
64.464699 55.630146 38.693764
64.699989 54.630146 38.309914
65.201942 54.630146 37.693764
64.699989 53.630146 38.178444
65.094093 53.630146 37.693764
65.699989 54.630146 37.074135
65.986549 54.630146 36.693764
65.699989 53.630146 36.936195
65.881508 53.630146 36.693764
64.699989 52.630146 38.000038
64.948402 52.630146 37.693764
64.699989 51.630146 37.802773
65.699989 52.630146 36.753090
65.699989 52.359150 36.693764
65.584633 51.630146 36.693764
63.510048 54.630146 39.693764
62.699989 53.630146 40.463905
63.403603 53.630146 39.693764
63.699989 54.630146 39.481239
64.385231 54.630146 38.693764
63.699989 53.630146 39.360695
64.276161 53.630146 38.693764
62.699989 52.630146 40.304970
63.251747 52.630146 39.693764
62.699989 51.630146 40.155006
63.109779 51.630146 39.693764
63.699989 52.630146 39.189308
64.127846 52.630146 38.693764
63.699989 51.630146 39.013588
63.970497 51.630146 38.693764
58.699993 58.630146 44.548012
59.665752 58.630146 43.693764
58.699993 57.630146 44.552162
59.668499 57.630146 43.693764
58.699993 56.630146 44.487892
59.585369 56.630146 43.693764
58.699993 55.630146 44.394447
59.471905 55.630146 43.693764
59.699993 55.630146 43.482155
58.699993 54.630146 44.297462
59.366131 54.630146 43.693764
58.699993 53.630146 44.199806
59.262127 53.630146 43.693764
59.699993 54.630146 43.386757
60.458050 54.630146 42.693764
59.699993 53.630146 43.291237
60.354778 53.630146 42.693764
58.699993 52.630146 44.102394
59.161297 52.630146 43.693764
58.699993 51.630146 43.987404
59.039104 51.630146 43.693764
59.699993 52.630146 43.206337
60.262615 52.630146 42.693764
59.699993 51.630146 43.105507
60.155193 51.630146 42.693764
65.517616 66.630142 35.693768
65.699989 66.014236 35.693768
65.699989 65.630142 35.827190
65.699989 66.630142 35.436260
66.184792 66.630142 34.693768
66.465370 65.630142 34.693768
66.699989 64.665909 34.693768
66.699989 63.630142 35.037762
66.910133 63.630142 34.693768
65.699989 64.630142 36.170696
66.045082 64.630142 35.693768
65.699989 63.630142 36.484112
66.267372 63.630142 35.693768
66.699989 66.630142 33.855572
66.699989 65.630142 34.307964
67.068886 65.630142 33.693768
66.699989 66.957779 33.693768
67.388222 66.630142 32.693768
67.699989 65.452164 32.693768
67.312965 64.630142 33.693768
67.516273 63.630142 33.693768
67.699989 64.630142 33.048199
67.891884 64.630142 32.693768
67.699989 63.630142 33.394878
68.091042 63.630142 32.693768
66.699989 62.630142 35.321392
67.086403 62.630142 34.693768
66.600624 61.630142 35.693768
67.229408 61.630142 34.693768
66.454689 62.630142 35.693768
67.332863 60.630142 34.693768
66.699989 60.668411 35.693768
66.699989 60.630142 35.698956
66.699989 59.630142 35.809795
67.407326 59.630142 34.693768
67.699989 62.555252 33.693768
67.699989 61.630142 33.906414
67.828407 61.630142 33.693768
68.255104 62.630142 32.693768
68.389503 61.630142 32.693768
67.699989 60.630142 34.077862
67.933327 60.630142 33.693768
67.699989 59.630142 34.195415
67.999855 59.630142 33.693768
68.489479 60.630142 32.693768
68.545570 59.630142 32.693768
67.699989 66.630142 32.130291
67.956764 66.630142 31.693768
68.219948 65.630142 31.693768
68.496742 66.630142 30.693768
68.436806 64.630142 31.693768
66.699989 58.630146 35.857464
67.447121 58.630146 34.693768
66.699989 57.630146 35.859783
67.455299 57.630146 34.693768
66.699989 56.630146 35.846844
67.445961 56.630146 34.693768
67.431313 55.630146 34.693768
66.699989 55.630146 35.806194
67.699989 58.630146 34.261211
68.037453 58.630146 33.693768
67.699989 57.630146 34.280560
68.054176 57.630146 33.693768
68.579384 58.630146 32.693768
68.598915 57.630146 32.693768
67.699989 56.630146 34.266033
68.048927 56.630146 33.693768
67.699989 55.630146 34.249432
68.044838 55.630146 33.693768
68.600685 56.630146 32.693768
68.603004 55.630146 32.693768
67.398293 54.630146 34.693768
66.699989 54.630146 35.727093
66.699989 54.348042 35.693768
67.320412 53.630146 34.693768
66.627968 53.630146 35.693768
66.699989 52.630146 35.416912
67.196571 52.630146 34.693768
66.699989 51.630146 35.187664
67.030067 51.630146 34.693768
66.500038 52.630146 35.693768
66.341347 51.630146 35.693768
67.699989 54.630146 34.211712
68.028358 54.630146 33.693768
67.699989 53.630146 34.103313
67.965614 53.630146 33.693768
68.596169 54.630146 32.693768
68.554665 53.630146 32.693768
67.699989 52.630146 33.922832
67.850624 52.630146 33.693768
67.691261 51.630146 33.693768
68.467384 52.630146 32.693768
68.336708 51.630146 32.693768
60.699989 50.630146 42.026711
61.050575 50.630146 41.693764
60.699989 49.630146 41.858986
60.872597 49.630146 41.693764
61.699989 50.630146 41.060463
62.057655 50.630146 40.693764
61.699989 49.630146 40.881813
61.881752 49.630146 40.693764
60.699989 48.630146 41.706032
60.699989 48.559650 41.693764
61.699989 48.630146 40.698830
61.538979 47.630146 40.693764
60.699989 47.630146 41.548500
60.699989 46.630146 41.397743
61.384682 46.630146 40.693764
60.699989 45.630146 41.254189
61.234291 45.630146 40.693764
60.699989 44.630146 41.106239
61.090126 44.630146 40.693764
60.699989 43.630150 40.957008
60.953407 43.630150 40.693764
64.699989 51.017170 37.693764
65.421547 50.630146 36.693764
64.636879 50.630146 37.693764
64.699989 49.630146 37.408241
65.248268 49.630146 36.693764
64.699989 48.630146 37.159645
65.044594 48.630146 36.693764
64.699989 47.630146 36.886696
64.834328 47.630146 36.693764
62.699989 50.630146 40.002235
62.970314 50.630146 39.693764
62.699989 49.630146 39.803383
63.699989 50.630146 38.837135
63.699989 49.961262 38.693764
63.642006 49.630146 38.693764
62.699989 49.105122 39.693764
63.458412 48.630146 38.693764
62.612099 48.630146 39.693764
62.699989 47.630146 39.407265
63.291420 47.630146 38.693764
62.451454 47.630146 39.693764
61.699989 47.630146 40.519753
64.464943 49.630146 37.693764
63.699989 48.630146 38.394875
64.272072 48.630146 37.693764
63.699989 47.630146 38.178139
64.084694 47.630146 37.693764
64.699989 46.936054 36.693764
62.699989 46.630146 39.226906
63.128944 46.630146 38.693764
62.699989 45.630146 39.037514
62.969032 45.630146 38.693764
61.699989 46.630146 40.351967
62.297340 46.630146 39.693764
61.699989 45.630146 40.181190
62.141212 45.630146 39.693764
62.699989 44.630146 38.871254
62.837318 44.630146 38.693764
62.699989 43.630150 38.735023
61.699989 44.630146 40.025490
62.001869 44.630146 39.693764
61.699989 43.630150 39.892555
61.881935 43.630150 39.693764
63.699989 46.630146 37.959084
63.904762 46.630146 37.693764
63.699989 45.630146 37.730995
64.636635 46.630146 36.693764
64.446449 45.630146 36.693764
63.585854 44.630146 37.693764
63.491676 43.630150 37.693764
64.301552 44.630146 36.693764
63.699989 43.630150 37.420082
64.225868 43.630150 36.693764
58.699993 50.630146 43.851234
58.881084 50.630146 43.693764
58.699993 49.615192 43.693764
59.699993 50.630146 42.958351
59.990826 50.630146 42.693764
59.699993 49.630146 42.794167
59.699993 48.938068 42.693764
58.699993 48.630146 43.548073
59.650921 48.630146 42.693764
58.699993 47.630146 43.413918
59.498394 47.630146 42.693764
57.699993 48.630146 44.417213
58.531963 48.630146 43.693764
57.699993 47.630146 44.284462
58.378765 47.630146 43.693764
59.699993 47.630146 42.504066
60.548809 47.630146 41.693764
58.699993 46.630146 43.271523
59.338604 46.630146 42.693764
58.699993 45.630146 43.126991
59.184734 45.630146 42.693764
57.699993 46.630146 44.148170
58.217999 46.630146 43.693764
57.699993 45.630146 44.002785
58.049725 45.630146 43.693764
58.699993 44.630146 42.985634
59.029766 44.630146 42.693764
58.699993 43.630150 42.837257
58.861797 43.630150 42.693764
57.699993 44.630146 43.857338
57.886028 44.630146 43.693764
57.699993 43.452477 43.693764
57.724468 43.630150 43.693764
59.699993 46.630146 42.354652
60.392254 46.630146 41.693764
59.699993 45.630146 42.215553
60.248394 45.630146 41.693764
59.699993 44.630146 42.074257
60.100506 44.630146 41.693764
59.699993 43.630150 41.921303
59.940105 43.630150 41.693764
60.699989 42.630150 40.831032
61.699989 42.630150 39.785500
61.696022 41.630150 39.693764
60.699989 41.630150 40.722145
62.699989 43.229698 38.693764
62.653664 42.630150 38.693764
62.583900 41.630150 38.693764
60.699989 41.367577 40.693764
61.594948 40.630150 39.693764
60.613018 40.630150 40.693764
60.699989 39.630150 40.499306
61.493263 39.630150 39.693764
62.502052 40.630150 38.693764
61.699989 39.630150 39.477333
62.420387 39.630150 38.693764
63.437843 42.630150 37.693764
63.397499 41.630150 37.693764
63.699989 42.630150 37.357033
64.193642 42.630150 36.693764
63.699989 41.630150 37.314796
64.169655 41.630150 36.693764
62.699989 40.630150 38.462868
63.346962 40.630150 37.693764
62.699989 39.630150 38.377235
63.291115 39.630150 37.693764
63.699989 40.630150 37.266335
64.140968 40.630150 36.693764
63.699989 39.630150 37.210060
