40.520996 96.575562 30.656311
41.137451 96.575562 29.925262
41.520996 97.575562 29.551331
42.036560 97.575562 28.925262
41.520996 96.575562 29.470886
41.977844 96.575562 28.925262
40.520996 95.575562 30.561188
41.064453 95.575562 29.925262
40.520996 94.575562 30.475922
41.001221 94.575562 29.925262
41.520996 95.575562 29.392914
41.919189 95.575562 28.925262
41.520996 94.575562 29.327209
41.868530 94.575562 28.925262
42.520996 97.575562 28.329285
42.849670 97.575562 27.925262
42.520996 96.575562 28.270844
42.808228 96.575562 27.925262
43.520996 97.575562 27.098724
43.660583 97.575562 26.925262
43.520996 96.575562 27.067352
42.520996 95.575562 28.217316
42.768860 95.575562 27.925262
42.520996 94.575562 28.172058
42.734863 94.575562 27.925262
43.520996 95.575562 27.039825
43.520996 94.575562 27.022278
40.520996 93.575562 30.398010
40.937866 93.575562 29.925262
40.520996 92.575562 30.339233
40.887512 92.575562 29.925262
41.520996 93.575562 29.258484
41.811340 93.575562 28.925262
41.520996 92.575562 29.207092
41.769653 92.575562 28.925262
40.520996 91.575562 30.295441
40.853699 91.575562 29.925262
40.520996 90.575562 30.278534
40.844177 90.575562 29.925262
41.520996 91.575562 29.181702
41.752319 91.575562 28.925262
41.520996 90.575562 29.181061
41.754150 90.575562 28.925262
42.520996 93.575562 28.117126
42.690247 93.575562 27.925262
42.520996 92.575562 28.079376
43.520996 93.575562 26.997620
43.520996 92.575562 26.977386
43.520996 91.575562 26.976135
42.520996 91.575562 28.071045
43.520996 90.575562 26.995880
42.520996 90.575562 28.082153
44.520996 121.575562 23.335968
44.858459 121.575562 22.925262
44.520996 120.575562 23.645630
45.194824 120.575562 22.925262
44.520996 119.575562 24.081879
44.520996 118.575562 24.522552
45.025879 118.575562 23.925262
44.520996 119.905090 23.925262
45.520996 119.709229 22.925262
45.520996 118.575562 23.302002
45.813782 118.575562 22.925262
44.399719 117.575562 24.925262
45.158813 117.575562 23.925262
44.459900 116.575562 24.925262
45.172302 116.575562 23.925262
45.520996 117.575562 23.431488
45.890076 117.575562 22.925262
45.520996 116.575562 23.474487
45.944641 116.575562 22.925262
44.520996 115.825317 24.925262
45.244019 115.575562 23.925262
44.520996 115.575562 24.962524
44.520996 114.575562 25.092926
45.322998 114.575562 23.925262
45.520996 115.575562 23.578461
46.037537 115.575562 22.925262
45.520996 114.575562 23.667664
46.079407 114.575562 22.925262
46.520996 121.575562 21.052094
46.520996 120.575562 21.428833
46.866943 120.575562 20.925262
45.520996 121.575562 22.216614
45.807800 121.575562 21.925262
45.520996 120.575562 22.582397
46.140503 120.575562 21.925262
46.520996 121.981384 20.925262
46.405457 119.575562 21.925262
47.064453 119.575562 20.925262
46.520996 118.906311 21.925262
47.180176 118.575562 20.925262
46.520996 118.575562 21.978973
47.338806 121.575562 19.925262
47.520996 120.367737 19.925262
47.520996 121.575562 19.668488
48.033752 121.575562 18.925262
48.121155 120.575562 18.925262
47.520996 119.575562 20.093475
47.520996 118.575562 20.247467
47.678528 118.575562 19.925262
48.161011 119.575562 18.925262
48.229248 118.575562 18.925262
46.520996 117.575562 22.087799
46.520996 116.575562 22.156219
46.677673 116.575562 21.925262
47.217712 117.575562 20.925262
47.228638 116.575562 20.925262
46.520996 115.575562 22.223633
46.715393 115.575562 21.925262
46.520996 114.575562 22.219086
46.701294 114.575562 21.925262
47.227295 115.575562 20.925262
47.191711 114.575562 20.925262
47.520996 117.575562 20.279358
47.696777 117.575562 19.925262
47.520996 116.575562 20.273438
47.688599 116.575562 19.925262
48.252686 117.575562 18.925262
48.219604 116.575562 18.925262
47.520996 115.575562 20.259644
47.676880 115.575562 19.925262
47.520996 114.575562 20.206116
47.658752 114.575562 19.925262
48.210266 115.575562 18.925262
48.216125 114.575562 18.925262
44.520996 113.575562 25.150391
44.669922 113.575562 24.925262
44.520996 112.575562 25.221222
44.713928 112.575562 24.925262
44.520996 111.575562 25.284454
44.745850 111.575562 24.925262
44.520996 110.575562 25.402924
44.824097 110.575562 24.925262
45.369873 113.575562 23.925262
45.402588 112.575562 23.925262
45.520996 113.575562 23.722076
46.084473 113.575562 22.925262
46.094177 112.575562 22.925262
45.422668 111.575562 23.925262
45.495728 110.575562 23.925262
46.112976 111.575562 22.925262
46.180359 110.575562 22.925262
44.520996 109.575562 25.555237
44.931030 109.575562 24.925262
44.520996 108.575562 25.636292
44.987854 108.575562 24.925262
44.520996 107.575562 25.680908
45.019958 107.575562 24.925262
44.520996 106.575562 25.704132
45.039246 106.575562 24.925262
45.520996 110.319092 23.925262
45.520996 109.575562 24.028778
45.520996 108.575562 24.101807
46.254700 109.575562 22.925262
46.295044 108.575562 22.925262
45.520996 107.575562 24.146881
45.672302 107.575562 23.925262
45.520996 106.575562 24.182556
45.698792 106.575562 23.925262
46.331909 107.575562 22.925262
46.368469 106.575562 22.925262
46.520996 113.575562 22.194305
46.676086 113.575562 21.925262
46.520996 112.575562 22.212952
46.686401 112.575562 21.925262
47.177124 113.575562 20.925262
47.217834 112.575562 20.925262
46.520996 111.575562 22.251434
46.715515 111.575562 21.925262
46.520996 110.575562 22.362579
46.787354 110.575562 21.925262
47.286499 111.575562 20.925262
47.372131 110.575562 20.925262
47.520996 113.575562 20.219604
47.678040 113.575562 19.925262
47.520996 112.575562 20.343353
47.759644 112.575562 19.925262
48.256531 113.575562 18.925262
48.355652 112.575562 18.925262
47.520996 111.575562 20.503845
47.866516 111.575562 19.925262
47.520996 110.575562 20.661987
47.964722 110.575562 19.925262
48.466370 111.575562 18.925262
48.520996 111.061890 18.925262
48.520996 110.575562 19.012329
48.520996 109.575562 19.223511
48.702026 109.575562 18.925262
48.520996 108.575562 19.427368
48.832336 108.575562 18.925262
48.520996 107.575562 19.597046
48.954529 107.575562 18.925262
48.520996 106.575562 19.737335
49.070068 106.575562 18.925262
46.520996 109.575562 22.488525
46.871521 109.575562 21.925262
46.520996 108.575562 22.564514
46.936157 108.575562 21.925262
47.467957 109.575562 20.925262
47.520996 109.021301 20.925262
47.520996 108.575562 20.991943
46.520996 107.575562 22.629517
46.990906 107.575562 21.925262
46.520996 106.575562 22.691010
47.041138 106.575562 21.925262
47.520996 107.575562 21.112061
47.643066 107.575562 20.925262
47.520996 106.575562 21.213135
47.715149 106.575562 20.925262
48.077698 109.575562 19.925262
48.197815 108.575562 19.925262
48.300903 107.575562 19.925262
48.391357 106.575562 19.925262
52.520996 119.436401 10.925262
52.520996 118.575562 11.166199
52.661194 118.575562 10.925262
52.520996 117.575562 11.353333
52.788330 117.575562 10.925262
52.520996 116.575562 11.517700
52.909790 116.575562 10.925262
52.520996 115.575562 11.733734
53.073364 115.575562 10.925262
52.520996 114.753540 11.925262
53.247437 114.575562 10.925262
48.520996 121.575562 18.177399
48.688721 121.575562 17.925262
48.520996 120.575562 18.306915
48.782837 120.575562 17.925262
49.360168 121.575562 16.925262
49.453369 120.575562 16.925262
48.520996 119.575562 18.350830
48.814026 119.575562 17.925262
48.520996 118.575562 18.448456
48.861145 118.575562 17.925262
49.453979 119.575562 16.925262
49.433899 118.575562 16.925262
49.520996 121.575562 16.665771
49.976685 121.575562 15.925262
50.038879 120.575562 15.925262
50.473511 121.575562 14.925262
50.520996 120.632324 14.925262
50.011841 119.575562 15.925262
49.963745 118.575562 15.925262
50.520996 120.517273 14.925262
50.508362 119.575562 14.925262
50.484070 118.575562 14.925262
48.520996 117.575562 18.467163
48.847961 117.575562 17.925262
48.520996 116.575562 18.385223
48.796509 116.575562 17.925262
49.385315 117.575562 16.925262
49.360779 116.575562 16.925262
48.520996 115.575562 18.382568
48.814697 115.575562 17.925262
48.520996 114.575562 18.405731
48.837036 114.575562 17.925262
49.417419 115.575562 16.925262
49.462585 114.575562 16.925262
49.520996 117.575562 16.651520
49.924744 117.575562 15.925262
49.520996 116.575562 16.632416
49.939880 116.575562 15.925262
50.486206 117.575562 14.925262
50.520996 116.646729 14.925262
50.520996 115.575562 15.086639
50.520996 114.575562 15.218567
50.693420 114.575562 14.925262
50.020996 115.575562 15.925262
50.087769 114.575562 15.925262
50.929382 121.575562 13.925262
50.983032 120.575562 13.925262
51.366272 121.575562 12.925262
51.416870 120.575562 12.925262
51.003052 119.575562 13.925262
51.009094 118.575562 13.925262
51.464722 119.575562 12.925262
51.520996 118.518799 12.925262
51.520996 121.575562 12.561188
51.815491 121.575562 11.925262
51.520996 120.575562 12.676056
51.871704 120.575562 11.925262
52.305115 121.575562 10.925262
52.384094 120.575562 10.925262
51.952271 119.575562 11.925262
52.065918 118.575562 11.925262
51.037964 117.575562 13.925262
51.097046 116.575562 13.925262
51.520996 117.575562 13.024567
51.520996 116.575562 13.156281
51.650391 116.575562 12.925262
51.189941 115.575562 13.925262
51.288330 114.575562 13.925262
51.520996 115.575562 13.349976
51.768677 115.575562 12.925262
51.520996 114.575562 13.548492
51.910583 114.575562 12.925262
52.158813 117.575562 11.925262
52.254028 116.575562 11.925262
52.390442 115.575562 11.925262
52.520996 113.575562 12.236908
52.736511 113.575562 11.925262
52.520996 112.575562 12.497681
52.926636 112.575562 11.925262
53.436768 113.575562 10.925262
53.520996 113.182312 10.925262
53.520996 112.575562 11.103638
53.646362 112.575562 10.925262
52.520996 111.575562 12.737305
53.109863 111.575562 11.925262
52.520996 110.890259 12.925262
53.309021 110.575562 11.925262
52.520996 110.575562 13.011780
53.520996 111.575562 11.374084
53.841858 111.575562 10.925262
53.520996 110.575562 11.645721
54.044922 110.575562 10.925262
52.520996 109.575562 13.307617
52.784119 109.575562 12.925262
52.520996 108.575562 13.598206
52.998230 108.575562 12.925262
52.520996 107.446594 13.925262
52.520996 106.575562 14.161652
52.708374 106.575562 13.925262
53.241516 107.575562 12.925262
53.520996 106.445923 12.925262
53.520996 109.567383 11.925262
53.520996 108.575562 12.213776
53.744019 108.575562 11.925262
54.268127 109.575562 10.925262
54.520996 108.470642 10.925262
54.520996 107.575562 11.247559
54.766296 107.575562 10.925262
54.520996 106.575562 11.615479
55.066772 106.575562 10.925262
53.520996 107.575562 12.547821
54.000977 107.575562 11.925262
54.278625 106.575562 11.925262
48.520996 113.575562 18.470551
48.875549 113.575562 17.925262
48.520996 112.575562 18.638092
48.982422 112.575562 17.925262
49.520996 113.431763 16.925262
49.520996 112.575562 17.077057
49.106934 111.575562 17.925262
49.236816 110.575562 17.925262
49.520996 111.575562 17.288666
49.751526 111.575562 16.925262
49.520996 110.575562 17.500854
49.891357 110.575562 16.925262
50.520996 113.575562 15.348328
50.780579 113.575562 14.925262
50.520996 112.575562 15.507324
50.886536 112.575562 14.925262
50.154602 113.575562 15.925262
50.255859 112.575562 15.925262
50.520996 111.575562 15.706543
51.018677 111.575562 14.925262
50.520996 110.565186 15.925262
51.185364 110.575562 14.925262
50.383301 111.575562 15.925262
49.373474 109.575562 17.925262
49.495483 108.575562 17.925262
49.520996 109.575562 17.708160
50.032654 109.575562 16.925262
50.170532 108.575562 16.925262
49.520996 108.350159 17.925262
49.520996 107.575562 18.065796
49.520996 106.575562 18.252808
49.755859 106.575562 17.925262
50.313660 107.575562 16.925262
50.463013 106.575562 16.925262
50.520996 109.575562 16.159088
50.677307 109.575562 15.925262
50.520996 108.575562 16.396637
50.851257 108.575562 15.925262
51.368835 109.575562 14.925262
51.520996 108.798096 14.925262
51.520996 108.575562 14.986664
50.520996 107.575562 16.623291
51.029785 107.575562 15.925262
51.203186 106.575562 15.925262
51.520996 107.575562 15.260651
51.764160 107.575562 14.925262
51.520996 106.575562 15.506927
51.954712 106.575562 14.925262
51.408569 113.575562 13.925262
51.520996 112.737854 13.925262
52.075012 113.575562 12.925262
52.241211 112.575562 12.925262
51.520996 111.575562 14.163025
51.693298 111.575562 13.925262
51.520996 110.575562 14.417938
51.879944 110.575562 13.925262
52.397766 111.575562 12.925262
51.520996 109.575562 14.697845
52.082703 109.575562 13.925262
52.287598 108.575562 13.925262
42.520996 121.575562 26.206665
42.743713 121.575562 25.925262
42.520996 120.575562 26.529236
42.961243 120.575562 25.925262
43.380249 121.575562 24.925262
43.520996 120.854980 24.925262
43.520996 120.575562 25.029266
43.204834 119.575562 25.925262
43.442078 118.575562 25.925262
43.520996 119.575562 25.462341
43.886292 119.575562 24.925262
44.204773 118.575562 24.925262
43.520996 121.575562 24.696747
44.058716 121.575562 23.925262
44.282227 120.575562 23.925262
43.520996 118.165527 25.925262
43.520996 117.575562 26.084747
43.520996 116.575562 26.258240
43.768494 116.575562 25.925262
43.520996 115.575562 26.397003
43.890137 115.575562 25.925262
43.520996 114.575562 26.577484
43.981323 114.575562 25.925262
43.520996 113.575562 26.696533
44.022034 113.575562 25.925262
44.074280 112.575562 25.925262
44.116577 111.575562 25.925262
44.179565 110.575562 25.925262
44.271179 109.575562 25.925262
44.322693 108.575562 25.925262
44.351501 107.575562 25.925262
44.367126 106.575562 25.925262
44.520996 105.575562 25.720551
45.056519 105.575562 24.925262
44.410339 104.575562 25.925262
45.104065 104.575562 24.925262
44.454529 103.575562 25.925262
45.168030 103.575562 24.925262
44.479370 102.575562 25.925262
45.213074 102.575562 24.925262
45.520996 105.575562 24.223541
45.730713 105.575562 23.925262
45.520996 104.575562 24.309296
45.793762 104.575562 23.925262
46.416382 105.575562 22.925262
46.485657 104.575562 22.925262
46.520996 103.575562 22.995697
46.520996 102.575562 23.108490
46.648804 102.575562 22.925262
45.520996 103.575562 24.417023
45.875183 103.575562 23.925262
45.520996 102.575562 24.494568
45.940796 102.575562 23.925262
46.520996 104.121643 22.925262
44.481628 101.575562 25.925262
45.232422 101.575562 24.925262
44.485657 100.575562 25.925262
45.249512 100.575562 24.925262
44.486023 99.575562 25.925262
45.257568 99.575562 24.925262
44.475403 98.575562 25.925262
45.262634 98.575562 24.925262
46.520996 101.575562 23.187561
46.708313 101.575562 22.925262
46.520996 100.575562 23.246124
46.757385 100.575562 22.925262
45.520996 101.575562 24.533600
45.981812 101.575562 23.925262
45.520996 100.575562 24.563477
46.012756 100.575562 23.925262
46.520996 99.575562 23.294373
46.807007 99.575562 22.925262
46.520996 98.575562 23.353058
46.868774 98.575562 22.925262
45.520996 99.575562 24.578735
46.033325 99.575562 23.925262
45.520996 98.575562 24.595154
46.061157 98.575562 23.925262
48.478333 105.575562 19.925262
49.181702 105.575562 18.925262
48.520996 105.162537 19.925262
49.309082 104.575562 18.925262
48.520996 104.575562 20.014862
48.520996 103.575562 20.184265
48.711975 103.575562 19.925262
48.520996 102.575562 20.343079
48.838318 102.575562 19.925262
49.452942 103.575562 18.925262
49.520996 103.138367 18.925262
49.520996 102.575562 19.036865
47.107605 105.575562 21.925262
47.190308 104.575562 21.925262
47.520996 105.575562 21.326721
47.797546 105.575562 20.925262
47.520996 104.575562 21.455963
47.893250 104.575562 20.925262
47.280579 103.575562 21.925262
47.366028 102.575562 21.925262
47.520996 103.575562 21.592712
48.001038 103.575562 20.925262
47.520996 102.575562 21.715485
48.105835 102.575562 20.925262
48.520996 101.575562 20.488556
48.966492 101.575562 19.925262
48.520996 100.575562 20.647400
49.118225 100.575562 19.925262
49.520996 101.575562 19.239655
49.776367 101.575562 18.925262
49.520996 100.575562 19.451538
49.970520 100.575562 18.925262
48.429382 99.575562 20.925262
49.286011 99.575562 19.925262
48.520996 98.880249 20.925262
49.455139 98.575562 19.925262
48.520996 98.575562 20.973633
49.520996 99.575562 19.660217
50.178040 99.575562 18.925262
50.383362 98.575562 18.925262
47.436035 101.575562 21.925262
47.520996 100.402954 21.925262
48.200562 101.575562 20.925262
48.307983 100.575562 20.925262
47.520996 99.575562 22.018585
47.520996 98.575562 22.134430
47.702026 98.575562 21.925262
44.471863 97.575562 25.925262
45.285950 97.575562 24.925262
44.469055 96.575562 25.925262
45.309265 96.575562 24.925262
44.470337 95.575562 25.925262
45.335632 95.575562 24.925262
44.485474 94.575562 25.925262
45.374817 94.575562 24.925262
46.520996 97.575562 23.434509
46.950623 97.575562 22.925262
46.520996 96.575562 23.520172
47.042480 96.575562 22.925262
45.520996 97.575562 24.636047
46.112732 97.575562 23.925262
45.520996 96.575562 24.674988
46.170532 96.575562 23.925262
46.520996 95.575562 23.598877
47.134827 95.575562 22.925262
46.520996 94.575562 23.674164
47.229614 94.575562 22.925262
45.520996 95.575562 24.714478
46.228271 95.575562 23.925262
45.520996 94.575562 24.763397
46.289124 94.575562 23.925262
44.495972 93.575562 25.925262
45.409180 93.575562 24.925262
44.499695 92.575562 25.925262
45.437561 92.575562 24.925262
44.509949 91.575562 25.925262
45.472046 91.575562 24.925262
44.520996 91.109131 25.925262
45.520996 90.447815 24.925262
44.520996 90.575562 25.941650
46.520996 93.575562 23.743225
47.316406 93.575562 22.925262
46.403687 92.575562 23.925262
47.386108 92.575562 22.925262
46.347839 93.575562 23.925262
46.460632 91.575562 23.925262
47.448242 91.575562 22.925262
46.520996 90.420715 23.925262
47.499451 90.575562 22.925262
48.520996 97.575562 21.147766
48.718140 97.575562 20.925262
48.520996 96.575562 21.308197
48.876587 96.575562 20.925262
48.520996 95.575562 21.449829
49.025513 95.575562 20.925262
48.520996 94.575562 21.584808
49.173584 94.575562 20.925262
50.520996 97.575562 19.017456
50.520996 96.575562 19.252899
50.862305 96.575562 18.925262
49.520996 98.174927 19.925262
49.520996 97.575562 20.053436
49.520996 96.575562 20.252594
49.842773 96.575562 19.925262
50.520996 97.929138 18.925262
50.520996 95.575562 19.454224
51.083740 95.575562 18.925262
50.520996 94.575562 19.631989
51.275146 94.575562 18.925262
49.520996 95.575562 20.426605
50.031494 95.575562 19.925262
49.520996 94.575562 20.586548
50.211548 94.575562 19.925262
47.520996 97.575562 22.260284
47.821472 97.575562 21.925262
47.520996 96.575562 22.384369
47.944458 96.575562 21.925262
47.520996 95.575562 22.501373
48.064209 95.575562 21.925262
47.520996 94.575562 22.615936
48.186340 94.575562 21.925262
48.520996 93.575562 21.700867
49.310120 93.575562 20.925262
48.373108 92.575562 21.925262
49.394409 92.575562 20.925262
48.431274 91.575562 21.925262
49.443054 91.575562 20.925262
48.472717 90.575562 21.925262
49.467590 90.575562 20.925262
50.520996 93.575562 19.774017
51.408203 93.575562 18.925262
50.441162 92.575562 19.925262
51.468811 92.575562 18.925262
49.520996 93.575562 20.724609
50.362671 93.575562 19.925262
50.478638 91.575562 19.925262
51.505188 91.575562 18.925262
50.485046 90.575562 19.925262
51.503418 90.575562 18.925262
47.520996 93.575562 22.714111
48.296631 93.575562 21.925262
52.520996 104.122253 14.925262
52.520996 103.575562 15.117737
52.678711 103.575562 14.925262
52.520996 102.575562 15.463074
52.991089 102.575562 14.925262
52.520996 101.157898 15.925262
52.520996 100.575562 16.107574
52.693359 100.575562 15.925262
52.396179 101.575562 15.925262
53.324707 101.575562 14.925262
53.520996 100.989929 14.925262
53.520996 100.575562 15.064514
52.520996 99.575562 16.427124
53.013672 99.575562 15.925262
52.520996 98.575562 16.734161
53.350342 98.575562 15.925262
53.520996 99.575562 15.418854
54.024048 99.575562 14.925262
53.520996 98.575562 15.761139
54.405762 98.575562 14.925262
56.520996 102.936890 10.925262
56.520996 102.575562 11.107483
56.690186 102.575562 10.925262
52.520996 105.575562 14.456940
52.952881 105.575562 13.925262
52.412231 104.575562 14.925262
53.239746 104.575562 13.925262
53.520996 105.575562 13.229523
53.767517 105.575562 12.925262
53.520996 104.575562 13.592133
54.080383 104.575562 12.925262
54.520996 103.312439 12.925262
54.520996 102.575562 13.243866
54.815308 102.575562 12.925262
53.520996 103.636230 13.925262
53.520996 102.575562 14.326019
53.891724 102.575562 13.925262
54.420471 103.575562 12.925262
54.520996 105.575562 11.992737
54.520996 104.575562 12.397949
54.922363 104.575562 11.925262
54.520996 105.730042 11.925262
55.401550 105.575562 10.925262
55.520996 105.260132 10.925262
55.520996 104.575562 11.229950
55.782837 104.575562 10.925262
55.312073 103.575562 11.925262
55.520996 103.098511 11.925262
55.520996 102.575562 12.160980
55.741333 102.575562 11.925262
55.520996 103.575562 11.696106
56.215759 103.575562 10.925262
56.520996 100.948730 11.925262
56.520996 100.575562 12.092743
56.695679 100.575562 11.925262
56.520996 101.575562 11.621552
57.198181 101.575562 10.925262
57.520996 100.948425 10.925262
57.520996 100.575562 11.109955
57.701294 100.575562 10.925262
56.520996 99.575562 12.543396
57.182922 99.575562 11.925262
57.520996 98.878357 11.925262
56.520996 98.710388 12.925262
57.520996 98.575562 12.045898
57.520996 99.575562 11.601257
58.197083 99.575562 10.925262
58.520996 98.876038 10.925262
58.520996 98.575562 11.049744
54.520996 101.575562 13.654999
55.226013 101.575562 12.925262
54.520996 100.887573 13.925262
55.520996 100.883972 12.925262
55.520996 100.575562 13.054535
54.520996 100.575562 14.048340
53.520996 101.575562 14.711212
54.263367 101.575562 13.925262
54.520996 99.575562 14.450531
55.066895 99.575562 13.925262
55.520996 98.502747 13.925262
55.520996 99.575562 13.488831
56.114624 99.575562 12.925262
55.520996 101.575562 12.621429
56.212585 101.575562 11.925262
50.520996 105.575562 17.066101
50.520996 104.575562 17.297729
50.804810 104.575562 16.925262
49.520996 105.575562 18.432770
49.894653 105.575562 17.925262
49.520996 104.575562 18.624329
50.048584 104.575562 17.925262
50.520996 106.169373 16.925262
50.520996 103.575562 17.544067
51.014282 103.575562 16.925262
50.408691 102.575562 17.925262
51.246155 102.575562 16.925262
50.223267 103.575562 17.925262
51.385681 105.575562 15.925262
51.520996 104.909485 15.925262
51.520996 104.575562 16.009674
51.520996 105.575562 15.755035
52.169678 105.575562 14.925262
51.520996 103.575562 16.294373
51.832214 103.575562 15.925262
51.520996 102.575562 16.597107
52.108704 102.575562 15.925262
50.520996 101.575562 18.031006
50.520996 100.575562 18.294250
50.849060 100.575562 17.925262
50.520996 101.974731 17.925262
51.520996 101.446533 16.925262
51.520996 100.575562 17.185455
51.762878 100.575562 16.925262
50.520996 99.575562 18.549011
51.099670 99.575562 17.925262
51.348022 98.575562 17.925262
51.520996 99.575562 17.478088
52.048401 99.575562 16.925262
51.520996 98.575562 17.747864
52.332520 98.575562 16.925262
52.520996 97.575562 17.042389
52.520996 96.575562 17.329559
52.952271 96.575562 16.925262
52.520996 95.575562 17.558685
53.206055 95.575562 16.925262
52.520996 94.575562 17.748993
53.408691 94.575562 16.925262
54.520996 98.266907 14.925262
54.520996 97.575562 15.177704
54.811523 97.575562 14.925262
54.520996 96.575562 15.505371
55.187866 96.575562 14.925262
53.520996 98.048340 15.925262
53.520996 97.575562 16.089386
53.696594 97.575562 15.925262
52.520996 97.927490 16.925262
53.520996 96.575562 16.401306
54.046631 96.575562 15.925262
54.520996 95.575562 15.745117
55.458618 95.575562 14.925262
55.520996 94.575562 15.044037
55.520996 95.313171 14.925262
54.520996 94.516113 15.925262
53.520996 95.575562 16.639740
54.317505 95.575562 15.925262
52.462891 93.575562 17.925262
53.520996 93.575562 16.947784
53.520996 93.799011 16.925262
53.520996 92.575562 16.970886
52.520996 92.376770 17.925262
53.520996 91.575562 16.955322
52.520996 91.575562 17.931702
52.520996 91.184753 17.925262
53.520996 90.882813 16.925262
52.498352 90.575562 17.925262
53.500488 90.575562 16.925262
55.520996 93.575562 15.142914
55.762573 93.575562 14.925262
54.520996 93.575562 16.039215
55.520996 92.575562 15.114166
55.721619 92.575562 14.925262
54.520996 92.575562 16.045105
55.520996 91.575562 15.015167
54.520996 91.575562 15.992096
55.520996 90.947571 14.925262
54.505249 90.575562 15.925262
55.463196 90.575562 14.925262
56.520996 97.575562 13.380676
57.007080 97.575562 12.925262
56.520996 96.575562 13.714569
57.349609 96.575562 12.925262
56.520996 95.575562 13.981171
56.520996 94.575562 14.179321
56.810059 94.575562 13.925262
57.520996 96.006470 12.925262
56.520996 95.789856 13.925262
57.520996 95.575562 13.042633
57.520996 94.575562 13.245453
57.840027 94.575562 12.925262
58.520996 97.575562 11.451843
59.015381 97.575562 10.925262
58.383789 96.575562 11.925262
59.344360 96.575562 10.925262
57.520996 97.575562 12.437256
58.052795 97.575562 11.925262
57.520996 96.575562 12.760864
58.520996 95.575562 12.050690
58.520996 94.575562 12.204529
58.783203 94.575562 11.925262
58.520996 96.083435 11.925262
59.520996 95.830139 10.925262
59.520996 95.575562 10.978577
59.520996 94.575562 11.053467
55.520996 97.575562 14.289093
55.918701 97.575562 13.925262
55.520996 96.575562 14.630219
56.290344 96.575562 13.925262
56.520996 93.575562 14.249512
56.876526 93.575562 13.925262
56.520996 92.575562 14.168427
56.773376 92.575562 13.925262
57.520996 93.575562 13.270355
57.841858 93.575562 12.925262
57.520996 92.575562 13.099548
57.669800 92.575562 12.925262
56.520996 91.575562 13.985931
57.520996 91.969360 12.925262
57.404175 91.575562 12.925262
56.520996 91.344910 13.925262
57.101257 90.575562 12.925262
56.520996 90.575562 13.697968
58.520996 93.575562 12.159698
58.728027 93.575562 11.925262
58.472595 92.575562 11.925262
59.502319 93.575562 10.925262
59.181152 92.575562 10.925262
58.520996 91.575562 11.313477
58.759583 91.575562 10.925262
58.520996 90.966248 10.925262
58.118347 91.575562 11.925262
57.520996 90.575562 12.300385
57.781738 90.575562 11.925262
58.393311 90.575562 10.925262
56.339294 90.575562 13.925262
51.520996 97.887207 17.925262
51.520996 97.575562 18.019104
51.520996 96.575562 18.282867
51.890015 96.575562 17.925262
51.520996 95.575562 18.505737
52.127686 95.575562 17.925262
51.520996 94.575562 18.691498
52.331543 94.575562 17.925262
44.377197 105.575562 25.925262
44.520996 76.575562 27.087921
44.520996 75.575562 27.274841
44.787354 75.575562 26.925262
44.520996 74.575562 27.479279
44.947266 74.575562 26.925262
35.520996 89.575562 35.448578
36.058838 89.575562 34.925262
35.018860 89.575562 35.925262
35.520996 88.575562 35.417358
36.030579 88.575562 34.925262
34.982178 88.575562 35.925262
34.966736 87.575562 35.925262
34.520996 86.575562 36.329742
34.972595 86.575562 35.925262
35.520996 87.575562 35.408661
36.026978 87.575562 34.925262
35.520996 86.575562 35.422485
36.049316 86.575562 34.925262
34.520996 85.575562 36.340912
34.992188 85.575562 35.925262
34.520996 84.575562 36.374390
35.035706 84.575562 35.925262
35.520996 85.575562 35.446533
36.081421 85.575562 34.925262
35.520996 84.575562 35.489044
36.130371 84.575562 34.925262
34.520996 83.575562 36.429688
35.107300 83.575562 35.925262
34.520996 82.575562 36.497162
35.192871 82.575562 35.925262
35.520996 83.575562 35.556885
36.209229 83.575562 34.925262
35.520996 82.575562 35.634827
36.299561 82.575562 34.925262
36.520996 79.575562 35.004486
36.520996 78.575562 35.102631
36.733032 78.575562 34.925262
36.520996 77.575562 35.225311
36.885071 77.575562 34.925262
36.520996 76.575562 35.360413
37.052246 76.575562 34.925262
36.520996 75.575562 35.500580
37.224854 75.575562 34.925262
36.520996 74.575562 35.660706
37.415710 74.575562 34.925262
34.520996 81.575562 36.572693
35.281311 81.575562 35.925262
34.520996 80.575562 36.654236
35.375122 80.575562 35.925262
35.520996 81.575562 35.713470
36.394043 81.575562 34.925262
36.520996 80.388611 34.925262
34.520996 79.575562 36.731476
35.467712 79.575562 35.925262
34.371277 78.575562 36.925262
35.520996 78.575562 35.960693
35.520996 79.025574 35.925262
35.520996 77.575562 36.070526
35.686890 77.575562 35.925262
34.486389 77.575562 36.925262
35.520996 76.575562 36.191833
35.833862 76.575562 35.925262
34.520996 77.310608 36.925262
34.520996 76.575562 37.003143
35.520996 75.575562 36.318115
35.992310 75.575562 35.925262
34.762878 75.575562 36.925262
35.520996 74.575562 36.468292
36.185730 74.575562 35.925262
34.942261 74.575562 36.925262
36.520996 89.575562 34.474640
37.072388 89.575562 33.925262
36.520996 88.575562 34.451080
37.052734 88.575562 33.925262
37.520996 89.575562 33.466187
38.042358 89.575562 32.925262
37.520996 88.575562 33.452118
38.038696 88.575562 32.925262
36.520996 87.575562 34.454132
37.064209 87.575562 33.925262
36.520996 86.575562 34.483459
37.104736 86.575562 33.925262
37.520996 87.575562 33.470764
38.063110 87.575562 32.925262
37.520996 86.575562 33.516754
38.112793 86.575562 32.925262
38.520996 89.575562 32.423584
38.993042 89.575562 31.925262
38.520996 88.575562 32.427917
39.003540 88.575562 31.925262
39.520996 89.575562 31.366394
39.933472 89.575562 30.925262
39.520996 88.575562 31.381409
39.948975 88.575562 30.925262
38.520996 87.575562 32.455261
39.031555 87.575562 31.925262
38.520996 86.575562 32.508057
39.081665 86.575562 31.925262
39.520996 87.575562 31.412903
39.981445 87.575562 30.925262
39.520996 86.575562 31.467316
40.037292 86.575562 30.925262
36.520996 85.575562 34.518555
37.149719 85.575562 33.925262
36.520996 84.575562 34.566620
37.204590 84.575562 33.925262
37.520996 85.575562 33.564148
38.168518 85.575562 32.925262
37.520996 84.575562 33.619263
38.233643 84.575562 32.925262
36.520996 83.575562 34.641479
37.287170 83.575562 33.925262
36.520996 82.575562 34.725281
37.380554 82.575562 33.925262
37.520996 83.575562 33.700134
38.325073 83.575562 32.925262
38.426880 82.575562 32.925262
38.520996 85.575562 32.571198
39.151062 85.575562 31.925262
38.520996 84.575562 32.643188
39.235352 84.575562 31.925262
39.520996 85.575562 31.543488
40.113281 85.575562 30.925262
39.520996 84.575562 31.635406
40.205994 84.575562 30.925262
38.520996 83.575562 32.736053
39.335449 83.575562 31.925262
39.437683 82.575562 31.925262
39.520996 83.575562 31.738220
40.303345 83.575562 30.925262
40.398071 82.575562 30.925262
40.520996 89.575562 30.290833
40.859985 89.575562 29.925262
40.520996 88.575562 30.313416
40.886414 88.575562 29.925262
41.520996 89.575562 29.205658
41.777161 89.575562 28.925262
41.520996 88.575562 29.244965
41.816345 88.575562 28.925262
40.520996 87.575562 30.355652
40.934326 87.575562 29.925262
40.520996 86.575562 30.420746
41.002563 86.575562 29.925262
41.520996 87.575562 29.307434
41.877686 87.575562 28.925262
41.520996 86.575562 29.386688
41.954468 86.575562 28.925262
42.520996 89.575562 28.115417
42.695374 89.575562 27.925262
42.520996 88.575562 28.163513
42.741272 88.575562 27.925262
43.520996 89.575562 27.035522
43.520996 88.575562 27.084320
42.520996 87.575562 28.227936
42.798096 87.575562 27.925262
42.520996 86.575562 28.307587
42.864441 86.575562 27.925262
43.520996 87.575562 27.139099
43.715881 87.575562 26.925262
43.520996 86.575562 27.200012
43.766968 86.575562 26.925262
40.520996 85.575562 30.499207
41.077209 85.575562 29.925262
40.520996 84.575562 30.593506
41.161072 84.575562 29.925262
41.520996 85.575562 29.462891
42.025391 85.575562 28.925262
41.520996 84.575562 29.543793
42.093506 84.575562 28.925262
40.520996 83.575562 30.694550
41.249084 83.575562 29.925262
41.340271 82.575562 29.925262
41.520996 83.575562 29.633392
42.169067 83.575562 28.925262
41.520996 82.575562 29.730042
42.255005 82.575562 28.925262
42.520996 85.575562 28.381531
42.929138 85.575562 27.925262
42.520996 84.575562 28.452240
42.993958 84.575562 27.925262
43.520996 85.575562 27.266693
43.822144 85.575562 26.925262
43.520996 84.575562 27.339966
43.885742 84.575562 26.925262
42.520996 83.575562 28.533905
43.066040 83.575562 27.925262
42.520996 82.575562 28.627625
43.145935 82.575562 27.925262
43.520996 83.575562 27.418610
43.950378 83.575562 26.925262
43.520996 82.575562 27.503937
44.017151 82.575562 26.925262
40.520996 80.575562 31.034271
40.520996 79.575562 31.183685
40.761108 79.575562 30.925262
40.520996 78.575562 31.334778
40.899841 78.575562 30.925262
38.530945 81.575562 32.925262
38.520996 81.658264 32.925262
38.520996 80.575562 33.057983
37.481079 81.575562 33.925262
37.520996 80.575562 33.998016
37.520996 81.239441 33.925262
38.520996 79.575562 33.191467
38.800781 79.575562 32.925262
38.520996 78.575562 33.333130
38.951294 78.575562 32.925262
37.520996 79.575562 34.111267
37.725586 79.575562 33.925262
37.520996 78.575562 34.233459
37.867432 78.575562 33.925262
39.520996 81.702942 31.925262
39.520996 80.575562 32.064026
40.520996 81.383911 30.925262
39.520996 79.575562 32.208038
39.798096 79.575562 31.925262
39.520996 78.575562 32.357330
39.945007 78.575562 31.925262
40.520996 77.575562 31.499115
41.051636 77.575562 30.925262
40.520996 76.575562 31.672760
41.210510 76.575562 30.925262
40.436890 75.575562 31.925262
41.367432 75.575562 30.925262
40.520996 75.032410 31.925262
41.520996 74.589417 30.925262
40.520996 74.575562 31.990601
38.520996 77.575562 33.491302
39.120361 77.575562 32.925262
38.520996 76.575562 33.650269
39.296631 76.575562 32.925262
37.520996 77.575562 34.375031
38.034241 77.575562 33.925262
37.520996 76.575562 34.521820
38.208069 76.575562 33.925262
38.382019 75.575562 33.925262
39.459290 75.575562 32.925262
39.520996 75.198547 32.925262
38.520996 74.828247 33.925262
39.520996 74.575562 33.017303
38.520996 74.575562 33.963745
37.520996 75.575562 34.671417
39.520996 77.575562 32.524841
40.106995 77.575562 31.925262
39.520996 76.575562 32.701813
40.278015 76.575562 31.925262
41.437744 81.575562 29.925262
41.520996 80.834412 29.925262
41.520996 80.575562 29.955872
42.348877 81.575562 28.925262
42.453430 80.575562 28.925262
42.520996 79.575562 28.978027
42.520996 78.575562 29.114105
42.684021 78.575562 28.925262
41.520996 79.575562 30.089569
41.671814 79.575562 29.925262
41.520996 78.575562 30.232117
41.798950 78.575562 29.925262
42.520996 79.964294 28.925262
42.520996 81.575562 28.730316
43.231934 81.575562 27.925262
43.326294 80.575562 27.925262
43.520996 81.575562 27.597839
44.090820 81.575562 26.925262
43.520996 80.575562 27.702789
44.170166 80.575562 26.925262
43.432373 79.575562 27.925262
43.520996 78.825989 27.925262
43.520996 78.575562 27.957275
44.266296 79.575562 26.925262
44.385986 78.575562 26.925262
42.520996 77.575562 29.271667
42.818115 77.575562 28.925262
42.520996 76.575562 29.446686
42.968689 76.575562 28.925262
41.520996 77.575562 30.396942
41.943970 77.575562 29.925262
41.520996 76.575562 30.574371
42.100586 76.575562 29.925262
42.520996 75.575562 29.631653
43.130493 75.575562 28.925262
42.429260 74.575562 29.925262
43.303467 74.575562 28.925262
41.520996 75.575562 30.752991
42.262695 75.575562 29.925262
43.520996 77.575562 28.109467
43.680054 77.575562 27.925262
43.520996 76.575562 28.277344
43.822937 76.575562 27.925262
44.520996 77.524841 26.925262
43.520996 75.575562 28.462494
43.977295 75.575562 27.925262
43.520996 74.575562 28.666840
44.147461 74.575562 27.925262
44.520996 73.575562 27.679535
45.109497 73.575562 26.925262
44.482239 72.575562 27.925262
45.280029 72.575562 26.925262
44.520996 71.575562 28.089142
44.520996 70.575562 28.307312
44.833496 70.575562 27.925262
44.520996 72.336975 27.925262
45.457336 71.575562 26.925262
45.520996 71.225281 26.925262
45.520996 70.575562 27.065216
44.520996 69.575562 28.527802
45.012634 69.575562 27.925262
44.520996 68.575562 28.724426
45.178040 68.575562 27.925262
45.520996 69.575562 27.294525
45.797913 69.575562 26.925262
45.520996 68.575562 27.507904
45.966736 68.575562 26.925262
44.520996 67.505432 28.925262
45.335327 67.575562 27.925262
44.520996 66.575562 29.087006
45.484680 66.575562 27.925262
45.520996 67.575562 27.702179
46.122681 67.575562 26.925262
46.269287 66.575562 26.925262
44.520996 65.575562 29.236206
44.780945 65.575562 28.925262
44.520996 64.575562 29.350677
44.881042 64.575562 28.925262
44.520996 63.575562 29.430511
44.950500 63.575562 28.925262
44.520996 62.575562 29.483856
44.997253 62.575562 28.925262
45.520996 66.285461 27.925262
45.520996 65.575562 28.035797
45.520996 64.575562 28.163177
45.717834 64.575562 27.925262
46.394165 65.575562 26.925262
46.520996 64.363342 26.925262
46.520996 63.575562 27.016510
46.520996 62.575562 27.096771
46.653320 62.575562 26.925262
45.520996 63.575562 28.249634
45.793945 63.575562 27.925262
45.520996 62.575562 28.307556
45.845581 62.575562 27.925262
44.520996 61.575562 29.501801
45.017700 61.575562 28.925262
44.520996 60.575562 29.496246
45.015747 60.575562 28.925262
44.520996 59.575562 29.471771
44.997681 59.575562 28.925262
44.520996 58.575562 29.413483
44.954834 58.575562 28.925262
46.520996 61.575562 27.152130
46.699158 61.575562 26.925262
46.520996 60.575562 27.178589
46.724548 60.575562 26.925262
45.520996 61.575562 28.341949
45.879456 61.575562 27.925262
45.520996 60.575562 28.347412
45.889954 60.575562 27.925262
46.520996 59.575562 27.175751
46.725525 59.575562 26.925262
46.520996 58.575562 27.154938
46.711731 58.575562 26.925262
45.520996 59.575562 28.331726
45.880005 59.575562 27.925262
45.520996 58.575562 28.293976
45.850891 58.575562 27.925262
36.376892 73.575562 35.925262
37.520996 73.575562 34.982300
37.520996 73.951050 34.925262
37.520996 72.575562 35.111084
37.737122 72.575562 34.925262
36.550049 72.575562 35.925262
36.520996 71.575562 36.098114
36.736389 71.575562 35.925262
36.520996 70.575562 36.238129
36.909058 70.575562 35.925262
37.520996 71.575562 35.259155
37.906555 71.575562 34.925262
37.520996 70.575562 35.399414
38.065002 70.575562 34.925262
36.520996 69.575562 36.372620
37.069031 69.575562 35.925262
36.520996 68.575562 36.510162
37.231812 68.575562 35.925262
37.520996 69.575562 35.533417
38.212830 69.575562 34.925262
37.520996 68.575562 35.673431
38.374512 68.575562 34.925262
36.520996 67.575562 36.622803
37.364746 67.575562 35.925262
36.520996 66.575562 36.724304
37.485535 66.575562 35.925262
38.520996 67.533020 34.925262
38.520996 66.575562 35.026306
35.288940 72.575562 36.925262
34.520996 71.575562 37.670166
35.479980 71.575562 36.925262
34.355591 70.575562 37.925262
35.520996 70.575562 37.029633
35.520996 71.361877 36.925262
35.520996 73.575562 36.611359
35.118286 73.575562 36.925262
35.520996 72.575562 36.745728
35.520996 69.575562 37.160248
35.823975 69.575562 36.925262
35.520996 68.575562 37.298218
35.999207 68.575562 36.925262
35.520996 67.575562 37.413055
36.141296 67.575562 36.925262
35.520996 66.575562 37.514008
36.267334 66.575562 36.925262
38.520996 65.575562 35.117432
38.747681 65.575562 34.925262
38.520996 64.575562 35.179779
38.823547 64.575562 34.925262
36.385986 65.575562 36.925262
37.520996 65.575562 35.987396
37.520996 66.245056 35.925262
37.520996 64.575562 36.048096
36.461060 64.575562 36.925262
38.520996 63.575562 35.238770
38.890564 63.575562 34.925262
38.520996 62.575562 35.279602
38.933777 62.575562 34.925262
37.520996 63.575562 36.105804
37.729370 63.575562 35.925262
36.520996 63.575684 36.925262
36.520996 63.575562 36.925262
37.520996 62.575562 36.145599
37.776794 62.575562 35.925262
36.520996 62.575562 36.957825
38.520996 61.575562 35.266296
38.919861 61.575562 34.925262
38.520996 60.575562 35.207214
38.854370 60.575562 34.925262
37.520996 61.575562 36.129700
37.759216 61.575562 35.925262
36.520996 61.575562 36.947235
37.520996 60.575562 36.071503
37.689880 60.575562 35.925262
36.520996 61.001099 36.925262
36.491333 60.575562 36.925262
38.520996 59.575562 35.121460
38.758057 59.575562 34.925262
38.520996 58.575562 35.008545
37.520996 59.575562 35.979614
36.390442 59.575562 36.925262
37.520996 59.159424 35.925262
36.520996 58.575562 36.686066
37.431458 58.575562 35.925262
40.520996 73.575562 32.144806
40.732971 73.575562 31.925262
40.520996 72.575562 32.312714
40.896545 72.575562 31.925262
41.520996 73.575562 31.094208
41.677429 73.575562 30.925262
41.520996 72.575562 31.269226
41.841858 72.575562 30.925262
40.520996 71.575562 32.494110
41.074585 71.575562 31.925262
40.520996 70.575562 32.659760
41.247620 70.575562 31.925262
41.520996 71.575562 31.457153
42.017212 71.575562 30.925262
41.520996 70.575562 31.641296
42.195007 70.575562 30.925262
38.520996 73.575562 34.108795
38.722351 73.575562 33.925262
38.520996 72.575562 34.239258
38.867615 72.575562 33.925262
39.520996 73.575562 33.166077
39.763855 73.575562 32.925262
39.520996 72.575562 33.313965
39.920959 72.575562 32.925262
38.520996 71.575562 34.391266
39.037415 71.575562 33.925262
38.520996 70.575562 34.529419
39.191589 70.575562 33.925262
39.520996 71.575562 33.476746
40.095093 71.575562 32.925262
39.520996 70.575562 33.620514
40.254395 70.575562 32.925262
40.520996 68.575562 32.958527
40.520996 67.575562 33.085022
40.687317 67.575562 32.925262
40.520996 66.575562 33.194763
40.802002 66.575562 32.925262
40.400940 69.575562 32.925262
41.410950 69.575562 31.925262
41.520996 68.908813 31.925262
40.520996 68.814270 32.925262
41.520996 68.575562 31.972809
42.372314 69.575562 30.925262
42.520996 68.697754 30.925262
42.520996 67.575562 31.096466
42.688293 67.575562 30.925262
42.520996 66.575562 31.225159
42.819092 66.575562 30.925262
41.520996 67.575562 32.106964
41.702576 67.575562 31.925262
41.520996 66.575562 32.221497
41.819031 66.575562 31.925262
38.520996 69.575562 34.659393
39.334106 69.575562 33.925262
39.486938 68.575562 33.925262
39.520996 69.575562 33.752563
39.520996 67.575562 34.014374
39.520996 68.306152 33.925262
39.520996 66.575562 34.123962
39.734558 66.575562 33.925262
42.520996 73.575562 30.005890
42.520996 72.575562 30.192688
42.761902 72.575562 29.925262
42.520996 73.988037 29.925262
43.471375 73.575562 28.925262
43.520996 73.291382 28.925262
43.520996 72.575562 29.065948
42.520996 71.575562 30.384399
42.939514 71.575562 29.925262
42.520996 70.575562 30.579041
43.125000 70.575562 29.925262
43.520996 71.575562 29.273468
43.821716 71.575562 28.925262
43.520996 70.575562 29.487518
44.010437 70.575562 28.925262
44.314697 73.575562 27.925262
43.309814 69.575562 29.925262
43.474548 68.575562 29.925262
43.520996 69.575562 29.694244
44.197083 69.575562 28.925262
44.358948 68.575562 28.925262
43.520996 68.254150 29.925262
43.520996 67.575562 30.039978
43.520996 66.575562 30.190887
43.771179 66.575562 29.925262
40.520996 65.575562 33.303070
40.916138 65.575562 32.925262
40.520996 64.575562 33.384613
41.006165 64.575562 32.925262
40.520996 63.575562 33.442596
41.072693 63.575562 32.925262
40.520996 62.575562 33.477203
41.114746 62.575562 32.925262
42.520996 65.575562 31.343475
42.939636 65.575562 30.925262
42.520996 64.575562 31.446381
43.043396 64.575562 30.925262
41.520996 65.575562 32.334595
41.933838 65.575562 31.925262
41.520996 64.575562 32.428619
42.035034 64.575562 31.925262
42.520996 63.575562 31.526917
43.121765 63.575562 30.925262
42.520996 62.575562 31.579895
43.173645 62.575562 30.925262
41.520996 63.575562 32.500031
42.115356 63.575562 31.925262
41.520996 62.575562 32.545044
42.168213 62.575562 31.925262
39.520996 65.575562 34.227448
39.847778 65.575562 33.925262
39.520996 64.575562 34.302429
39.932190 64.575562 33.925262
39.520996 63.575562 34.359772
39.993164 63.575562 33.925262
39.520996 62.575562 34.394226
40.029663 62.575562 33.925262
40.520996 61.575562 33.477051
41.119812 61.575562 32.925262
40.520996 60.575562 33.446808
41.096619 60.575562 32.925262
40.520996 59.575562 33.385376
41.036682 59.575562 32.925262
40.520996 58.575562 33.286499
40.927063 58.575562 32.925262
42.520996 61.575562 31.594604
43.192383 61.575562 30.925262
42.520996 60.575562 31.582733
43.187012 60.575562 30.925262
41.520996 61.575562 32.552582
42.180969 61.575562 31.925262
41.520996 60.575562 32.534119
42.165710 60.575562 31.925262
42.520996 59.575562 31.539276
43.150940 59.575562 30.925262
42.520996 58.575562 31.446594
43.064270 58.575562 30.925262
41.520996 59.575562 32.482605
42.115784 59.575562 31.925262
41.520996 58.575562 32.383362
42.012939 58.575562 31.925262
39.520996 61.575562 34.385620
40.024658 61.575562 33.925262
39.520996 60.575562 34.337189
39.979919 60.575562 33.925262
39.520996 59.575562 34.263428
39.902649 59.575562 33.925262
39.520996 58.575562 34.162811
39.790466 58.575562 33.925262
43.520996 65.575562 30.320953
43.896545 65.575562 29.925262
43.520996 64.575562 30.427551
43.997803 64.575562 29.925262
43.520996 63.575562 30.507904
44.071716 63.575562 29.925262
43.520996 62.575562 30.561340
44.120422 62.575562 29.925262
43.520996 61.575562 30.580902
44.137024 61.575562 29.925262
43.520996 60.575562 30.577209
44.133423 60.575562 29.925262
43.520996 59.575562 30.545135
44.108459 59.575562 29.925262
43.520996 58.575562 30.466156
44.044128 58.575562 29.925262
44.520996 89.575562 25.976990
45.520996 89.575562 24.957336
44.520996 88.575562 26.013763
45.520996 88.575562 24.983307
44.520996 87.575562 26.061157
44.520996 86.575562 26.103638
44.688965 86.575562 25.925262
45.520996 87.575562 25.015472
45.520996 86.575562 25.038116
47.520996 89.507507 22.925262
46.520996 89.575562 23.951935
46.520996 88.575562 23.965515
47.520996 88.575562 22.928467
47.520996 88.176514 22.925262
46.520996 87.575562 23.973389
47.510071 87.575562 22.925262
47.474426 86.575562 22.925262
46.520996 86.575562 23.964172
44.520996 85.575562 26.146637
44.725037 85.575562 25.925262
44.520996 84.575562 26.204895
44.773132 84.575562 25.925262
45.520996 85.575562 25.054901
45.520996 84.575562 25.087982
45.666382 84.575562 24.925262
44.520996 83.575562 26.265228
44.820984 83.575562 25.925262
44.520996 82.575562 26.329010
44.870361 82.575562 25.925262
45.520996 83.575562 25.127441
45.697083 83.575562 24.925262
45.520996 82.575562 25.171631
45.730591 82.575562 24.925262
47.447571 85.575562 22.925262
46.520996 85.575562 23.955078
47.435120 84.575562 22.925262
46.520996 84.575562 23.963501
47.422546 83.575562 22.925262
46.520996 83.575562 23.977112
46.520996 82.575562 23.996826
47.415955 82.575562 22.925262
48.479431 89.575562 21.925262
49.449951 89.575562 20.925262
48.474365 88.575562 21.925262
49.424500 88.575562 20.925262
48.445923 87.575562 21.925262
49.374695 87.575562 20.925262
48.385437 86.575562 21.925262
49.281677 86.575562 20.925262
50.441589 89.575562 19.925262
51.443848 89.575562 18.925262
50.387085 88.575562 19.925262
51.354980 88.575562 18.925262
50.520996 87.575562 19.692627
51.226990 87.575562 18.925262
50.520996 86.575562 19.543121
51.067078 86.575562 18.925262
50.306580 87.575562 19.925262
49.520996 86.575562 20.657166
50.181946 86.575562 19.925262
48.520996 85.575562 21.707367
49.192566 85.575562 20.925262
48.520996 84.575562 21.654053
49.115234 84.575562 20.925262
48.520996 83.575562 21.597809
49.038940 83.575562 20.925262
