77.949188 -53.455753 26.288542
78.110718 -53.186817 26.288542
78.949188 -53.186817 25.294340
77.295105 -53.186817 27.288542
77.949188 -53.186817 26.479338
78.949188 -52.186817 26.067976
78.745789 -52.186817 26.288542
78.949188 -51.906788 26.288542
77.893677 -52.186817 27.288542
78.537842 -51.186817 27.288542
78.949188 -51.186817 26.828108
78.949188 -50.624241 27.288542
74.949188 -54.816456 29.288542
74.561310 -54.186817 30.288542
74.949188 -54.186817 29.772596
74.949188 -53.368076 30.288542
73.949188 -54.186817 31.099653
73.809631 -54.186817 31.288544
73.949188 -53.941090 31.288544
74.335480 -53.186817 31.288544
74.949188 -53.186817 30.400297
74.859314 -52.186817 31.288544
75.949188 -54.186817 28.346464
76.508636 -53.186817 28.288542
76.949188 -53.186817 27.718473
75.283783 -54.186817 29.288542
75.949188 -53.186817 29.021925
75.760071 -53.186817 29.288542
76.949188 -52.410328 28.288542
75.949188 -52.787388 29.288542
76.277405 -52.186817 29.288542
76.949188 -52.186817 28.449446
76.878601 -51.186817 29.288542
77.082855 -52.186817 28.288542
77.949188 -51.186817 27.971907
77.680756 -51.186817 28.288542
75.546448 -52.186817 30.288542
75.949188 -52.186817 29.733747
75.949188 -51.540257 30.288542
76.158142 -51.186817 30.288542
75.462311 -51.186817 31.288544
75.949188 -51.186817 30.585478
77.949188 -50.736195 28.288542
78.358398 -50.186817 28.288542
78.949188 -50.186817 27.695539
78.949188 -49.424747 28.288542
77.500824 -50.186817 29.288542
77.949188 -50.186817 28.723204
77.949188 -49.486439 29.288542
78.163513 -49.186817 29.288542
78.949188 -49.186817 28.465208
78.949188 -48.165928 29.288542
76.949188 -50.186817 30.021955
76.757751 -50.186817 30.288542
76.949188 -49.833317 30.288542
75.949188 -50.186817 31.383255
76.524536 -49.186817 31.288544
76.949188 -49.186817 30.754133
77.345856 -49.186817 30.288542
77.949188 -49.186817 29.537718
76.949188 -48.442493 31.288544
77.949188 -48.186817 30.349028
78.863892 -47.186813 30.288542
77.137360 -48.186817 31.288544
77.948944 -47.186813 31.288544
72.949188 -54.368595 32.288544
71.949188 -54.928028 33.288544
72.322662 -54.186817 33.288544
72.949188 -54.186817 32.434448
72.861084 -53.186817 33.288544
73.949188 -53.186817 31.850983
73.623657 -53.186817 32.288544
73.949188 -52.544468 32.288544
74.148132 -52.186817 32.288544
74.949188 -51.186817 32.023895
74.746490 -51.186817 32.288544
73.386200 -52.186817 33.288544
73.949188 -52.186817 32.546738
73.949188 -51.186817 33.289017
71.949188 -54.186817 33.805054
71.599274 -54.186817 34.288544
71.949188 -53.469776 34.288544
72.094208 -53.186817 34.288544
71.949188 -53.186817 34.474121
72.949188 -52.186817 33.869095
72.632782 -52.186817 34.288544
72.949188 -51.601658 34.288544
72.949188 -51.186817 34.553238
73.159851 -51.186817 34.288544
74.949188 -50.826435 32.288544
74.513580 -50.186817 33.288544
74.949188 -50.186817 32.725235
74.949188 -49.239246 33.288544
73.949188 -50.186817 33.980499
73.691406 -50.186817 34.288544
73.949188 -49.656376 34.288544
74.153015 -49.186817 34.288544
74.949188 -49.186817 33.316833
73.949188 -49.186817 34.528534
74.949188 -48.186817 33.856293
74.584930 -48.186817 34.288544
74.949188 -47.442020 34.288544
73.949188 -48.186817 35.038925
74.949188 -47.186813 34.438385
75.281128 -50.186817 32.288544
75.949188 -49.186817 32.018158
75.744232 -49.186817 32.288544
75.949188 -48.732639 32.288544
76.263611 -48.186817 32.288544
76.949188 -48.186817 31.489594
76.949188 -47.258869 32.288544
75.424744 -48.186817 33.288544
75.949188 -48.186817 32.651184
75.949188 -47.186813 33.368484
75.089111 -47.186813 34.288544
78.742157 -46.186813 31.288544
78.949188 -46.186813 31.056959
78.949188 -45.916016 31.288544
76.778259 -46.186813 33.288544
76.949188 -46.186813 33.113358
76.949188 -45.942581 33.288544
77.949188 -46.186813 32.125473
77.790436 -46.186813 32.288544
77.949188 -45.964096 32.288544
78.569489 -45.186813 32.288544
78.949188 -45.186813 31.900177
77.949188 -45.186813 32.886734
77.540771 -45.186813 33.288544
78.949188 -44.714508 32.288544
77.949188 -44.692764 33.288544
78.949188 -44.186813 32.713394
78.373749 -44.186813 33.288544
78.949188 -43.425156 33.288544
75.949188 -46.186813 34.140579
75.803680 -46.186813 34.288544
75.949188 -45.982117 34.288544
76.495178 -45.186813 34.288544
76.949188 -45.186813 33.840179
75.949188 -45.186813 34.808029
76.949188 -44.527435 34.288544
76.949188 -44.186813 34.520554
77.949188 -44.186813 33.687546
77.245941 -44.186813 34.288544
77.949188 -43.350922 34.288544
78.949188 -43.186813 33.434677
78.053772 -43.186813 34.288544
78.690063 -42.186813 34.288544
78.949188 -42.186813 34.044952
78.949188 -41.727280 34.288544
77.949188 -42.186813 35.018219
78.949188 -41.186813 34.582642
80.949196 -54.679783 21.288540
81.949196 -54.573719 20.288540
82.340309 -54.186817 20.288540
82.949196 -54.186817 19.490444
82.949196 -53.459599 20.288540
81.949196 -54.186817 20.777111
81.498634 -54.186817 21.288540
81.949196 -53.770954 21.288540
82.409615 -53.186817 21.288540
82.949196 -53.186817 20.526760
82.949196 -52.243427 21.288540
79.949196 -54.942478 22.288540
80.591530 -54.186817 22.288540
80.949196 -54.186817 21.874325
80.949196 -53.843906 22.288540
79.949196 -54.186817 23.117962
79.834694 -54.186817 23.288540
80.683815 -53.186817 23.288540
80.949196 -53.186817 23.014278
81.949196 -53.186817 21.910717
81.621101 -53.186817 22.288540
80.949196 -52.933933 23.288540
81.949196 -52.794956 22.288540
82.310371 -52.186817 22.288540
82.949196 -52.186817 21.330853
82.949196 -51.186817 22.002972
82.759895 -51.186817 22.288540
81.569771 -52.186817 23.288540
81.949196 -52.186817 22.799252
81.949196 -51.565266 23.288540
82.136086 -51.186817 23.288540
83.106270 -53.186817 20.288540
83.949196 -52.186817 19.887402
83.674843 -52.186817 20.288540
83.949196 -51.690220 20.288540
84.224159 -51.186817 20.288540
83.460548 -51.186817 21.288540
83.949196 -51.186817 20.647778
82.949196 -50.744389 22.288540
82.633034 -50.186817 23.288540
82.949196 -50.186817 22.757427
82.949196 -49.659138 23.288540
84.949196 -50.186817 20.102413
84.808052 -50.186817 20.288540
84.949196 -49.978428 20.288540
83.949196 -50.186817 21.403286
84.949196 -49.186817 21.031902
84.741066 -49.186817 21.288540
85.598549 -49.186817 20.288540
85.949196 -49.186817 19.881283
84.949196 -48.918629 21.288540
85.949196 -48.766499 20.288540
86.449532 -48.186817 20.288540
86.949196 -48.186817 19.706066
86.949196 -47.622746 20.288540
85.531105 -48.186817 21.288540
85.949196 -48.186817 20.819180
85.949196 -47.673862 21.288540
86.374611 -47.186813 21.288540
86.949196 -47.186813 20.679317
83.276741 -50.186817 22.288540
83.949196 -49.186817 22.319927
83.264900 -49.186817 23.288540
84.677773 -48.186817 22.288540
84.949196 -48.186817 21.963757
84.949196 -47.822987 22.288540
83.926155 -48.186817 23.288540
84.635719 -47.186813 23.288540
84.949196 -47.186813 22.898602
85.446419 -47.186813 22.288540
85.949196 -47.186813 21.731411
79.118477 -54.186817 24.288542
79.949196 -53.186817 24.128141
79.812477 -53.186817 24.288542
79.949196 -53.019474 24.288542
80.681129 -52.186817 24.288542
80.949196 -52.186817 24.012648
80.949196 -51.881168 24.288542
79.695564 -52.186817 25.288542
79.949196 -52.186817 25.031965
79.949196 -51.895344 25.288542
80.949196 -51.186817 24.870054
80.539375 -51.186817 25.288542
81.437630 -51.186817 24.288542
81.949196 -51.186817 23.582762
79.493629 -51.186817 26.288542
79.949196 -51.186817 25.859816
80.949196 -50.659748 25.288542
81.949196 -50.186817 24.385557
82.628181 -49.186817 24.288542
82.949196 -49.186817 23.786390
81.294960 -50.186817 25.288542
81.949196 -49.186817 25.317915
82.949196 -48.668491 24.288542
82.620064 -48.186817 25.288542
82.949196 -48.186817 24.763548
82.949196 -47.612354 25.288542
79.949196 -50.636723 26.288542
80.949196 -50.186817 25.693403
80.349129 -50.186817 26.288542
80.949196 -49.436008 26.288542
79.348488 -50.186817 27.288542
79.949196 -50.186817 26.682234
79.949196 -49.430195 27.288542
80.949196 -49.186817 26.477583
80.121162 -49.186817 27.288542
81.134560 -49.186817 26.288542
80.886269 -48.186817 27.288542
81.949196 -48.064594 26.288542
82.454964 -47.186813 26.288542
82.949196 -47.186813 25.623503
81.949196 -47.186813 26.934294
81.655312 -47.186813 27.288542
83.260017 -48.186817 24.288542
83.916756 -47.186813 24.288542
83.202705 -47.186813 25.288542
87.289467 -47.186813 20.288540
86.949196 -46.512421 21.288540
84.949196 -46.783203 23.288540
85.949196 -46.552475 22.288540
86.268990 -46.186813 22.288540
86.949196 -46.186813 21.585049
86.949196 -45.313736 22.288540
85.412697 -46.186813 23.288540
85.949196 -46.186813 22.631863
85.949196 -45.503067 23.288540
86.180702 -45.186813 23.288540
86.949196 -45.186813 22.377956
86.856697 -44.186813 23.288540
82.949196 -46.364456 26.288542
81.949196 -46.718323 27.288542
82.326515 -46.186813 27.288542
82.949196 -46.186813 26.463148
82.949196 -45.186813 27.392653
84.649086 -46.186813 24.288542
84.949196 -46.186813 23.902571
84.949196 -45.790466 24.288542
83.949196 -46.124451 25.288542
84.600685 -45.186813 25.288542
84.949196 -45.186813 24.839567
85.368050 -45.186813 24.288542
85.949196 -45.186813 23.575773
84.949196 -44.690048 25.288542
85.949196 -44.396500 24.288542
86.092567 -44.186813 24.288542
86.949196 -43.186813 23.901945
86.692146 -43.186813 24.288542
85.295418 -44.186813 25.288542
85.949196 -44.186813 24.473555
85.949196 -43.186813 25.371778
83.086342 -46.186813 26.288542
83.949196 -45.186813 26.107344
83.799355 -45.186813 26.288542
83.949196 -44.951401 26.288542
84.443367 -44.186813 26.288542
84.949196 -44.186813 25.711760
84.949196 -43.522903 26.288542
83.652504 -44.186813 27.288542
83.949196 -44.186813 26.891554
83.949196 -43.756790 27.288542
84.363289 -43.186813 27.288542
84.949196 -43.186813 26.589003
85.198311 -43.186813 26.288542
86.949196 -42.653046 24.288542
86.599464 -42.186813 25.288542
86.949196 -42.186813 24.699263
86.949196 -41.539597 25.288542
84.949196 -42.407562 27.288542
85.925423 -42.186813 26.288542
86.479103 -41.186813 26.288542
86.949196 -41.186813 25.594419
85.111092 -42.186813 27.288542
85.949196 -41.186813 27.040846
85.769173 -41.186813 27.288542
86.949196 -40.278992 26.288542
85.949196 -40.843216 27.288542
86.297401 -40.186813 27.288542
86.949196 -40.186813 26.361311
86.905251 -39.186813 27.288542
87.949196 -46.090256 20.288540
88.322029 -45.186813 20.288540
87.206917 -46.186813 21.288540
87.949196 -45.186813 20.959637
87.749580 -45.186813 21.288540
88.854652 -44.186813 20.288540
87.949196 -44.757370 21.288540
88.201942 -44.186813 21.288540
88.949196 -43.186813 21.021954
88.757393 -43.186813 21.288540
89.488716 -43.186813 20.288540
89.949196 -43.186813 19.596142
87.562721 -44.186813 22.288540
87.949196 -44.186813 21.702465
87.949196 -43.373825 22.288540
87.949196 -43.186813 22.415020
87.354195 -43.186813 23.288540
88.949196 -42.858063 21.288540
89.949196 -42.500214 20.288540
90.205910 -42.186813 20.288540
90.949196 -41.204041 20.288540
89.491402 -42.186813 21.288540
89.949196 -42.186813 20.659420
89.949196 -41.641449 21.288540
90.252876 -41.186813 21.288540
90.949196 -41.186813 20.303020
90.870247 -40.186813 21.288540
88.949196 -42.186813 21.956158
88.680611 -42.186813 22.288540
88.949196 -41.872833 22.288540
87.949196 -42.094894 23.288540
88.651588 -41.186813 23.288540
88.949196 -41.186813 22.941494
89.511269 -41.186813 22.288540
89.949196 -41.186813 21.721905
88.949196 -40.804535 23.288540
89.949196 -40.549118 22.288540
90.163429 -40.186813 22.288540
90.949196 -39.186813 22.039501
90.776344 -39.186813 22.288540
89.364052 -40.186813 23.288540
89.949196 -40.186813 22.566265
89.949196 -39.186813 23.377470
91.949196 -40.186813 19.666454
91.558174 -40.186813 20.288540
91.949196 -39.355530 20.288540
91.427406 -39.186813 21.288540
91.949196 -39.186813 20.402431
87.209175 -42.186813 24.288542
87.867683 -41.186813 24.288542
87.149727 -41.186813 25.288542
88.543007 -40.186813 24.288542
88.949196 -40.186813 23.783415
88.949196 -39.557739 24.288542
87.949196 -40.186813 25.065763
87.774727 -40.186813 25.288542
87.949196 -39.932220 25.288542
88.444283 -39.186813 25.288542
88.949196 -39.186813 24.605696
89.202461 -39.186813 24.288542
87.683937 -39.186813 26.288542
87.949196 -39.186813 25.958357
79.127968 -49.186817 28.288542
79.949196 -49.186817 27.469114
79.894966 -48.186817 28.288542
80.949196 -47.186813 28.051130
80.720680 -47.186813 28.288542
79.949196 -47.186813 29.119963
79.792122 -47.186813 29.288542
80.949196 -46.891159 28.288542
79.949196 -46.991867 29.288542
80.606331 -46.186813 29.288542
80.949196 -46.186813 28.917387
80.949196 -45.704895 29.288542
81.539070 -46.186813 28.288542
81.949196 -46.186813 27.792982
81.949196 -45.610443 28.288542
82.234474 -45.186813 28.288542
81.327126 -45.186813 29.288542
81.949196 -45.186813 28.615385
82.936073 -44.186813 28.288542
81.949196 -44.402222 29.288542
82.113136 -44.186813 29.288542
82.949196 -43.186813 29.105024
82.808510 -43.186813 29.288542
79.677467 -46.186813 30.288542
79.949196 -46.186813 29.997221
79.949196 -45.810242 30.288542
80.377510 -45.186813 30.288542
80.949196 -45.186813 29.673735
79.486732 -45.186813 31.288544
79.949196 -45.186813 30.756849
80.949196 -44.456940 30.288542
79.949196 -44.537918 31.288544
80.207253 -44.186813 31.288544
80.949196 -44.186813 30.510771
80.949196 -43.269302 31.288544
81.177528 -44.186813 30.288542
81.949196 -44.186813 29.472502
81.949196 -43.222778 30.288542
81.949196 -43.186813 30.314146
80.949196 -43.186813 31.345276
83.597237 -43.186813 28.288542
83.949196 -43.186813 27.833570
82.949196 -42.943726 29.288542
82.509224 -42.186813 30.288542
82.949196 -42.186813 29.800200
82.949196 -41.323975 30.288542
81.949196 -42.186813 30.901564
81.609383 -42.186813 31.288544
81.949196 -41.439819 31.288544
82.949196 -41.186813 30.351484
81.949196 -41.186813 31.414612
82.949196 -40.186813 30.889845
82.615059 -40.186813 31.288544
82.949196 -39.625854 31.288544
83.949196 -42.654251 28.288542
84.270241 -42.186813 28.288542
84.949196 -42.186813 27.491819
84.944740 -41.186813 28.288542
83.404518 -42.186813 29.288542
83.949196 -42.186813 28.658079
83.949196 -41.216873 29.288542
83.963692 -41.186813 29.288542
84.949196 -40.186813 28.829969
84.449287 -40.186813 29.288542
84.949196 -39.351898 29.288542
85.524818 -40.186813 28.288542
85.949196 -40.186813 27.784498
85.949196 -39.474625 28.288542
86.099739 -39.186813 28.288542
85.949196 -39.186813 28.455809
85.055611 -39.186813 29.288542
83.949196 -40.186813 29.774488
83.473213 -40.186813 30.288542
83.949196 -39.186813 30.336180
83.203041 -39.186813 31.288544
79.335152 -44.186813 32.288544
79.949196 -44.186813 31.575623
79.949196 -43.186813 32.370407
79.091957 -43.186813 33.288544
80.949196 -42.186813 31.996170
80.686867 -42.186813 32.288544
80.949196 -41.682755 32.288544
79.949196 -42.186813 33.078110
79.742226 -42.186813 33.288544
79.949196 -41.819489 33.288544
80.283974 -41.186813 33.288544
80.949196 -41.186813 32.560303
81.194344 -41.186813 32.288544
80.949196 -40.186813 33.111877
80.782082 -40.186813 33.288544
80.949196 -39.935242 33.288544
81.949196 -40.186813 32.073502
81.748421 -40.186813 32.288544
81.949196 -39.903656 32.288544
82.432289 -39.186813 32.288544
82.949196 -39.186813 31.644165
81.506996 -39.186813 33.288544
81.949196 -39.186813 32.830200
79.949196 -41.186813 33.626251
79.254799 -41.186813 34.288544
79.821724 -40.186813 34.288544
79.949196 -39.992172 34.288544
80.477516 -39.186813 34.288544
80.949196 -39.186813 33.828506
79.949196 -39.186813 34.837067
95.170052 -46.186813 4.288536
95.543465 -45.186813 4.288536
95.243752 -45.186813 5.288537
95.949196 -44.186813 4.304589
96.420021 -43.186813 4.288536
95.711739 -44.186813 5.288537
95.949196 -43.757813 5.288537
96.213753 -43.186813 5.288537
95.439919 -44.186813 6.288537
95.949196 -43.125565 6.288537
95.096657 -44.186813 7.288537
95.495277 -43.186813 7.288537
96.949196 -42.186813 3.705574
96.827858 -42.186813 4.288536
96.949196 -41.785995 4.288536
96.605965 -42.186813 5.288537
96.949196 -41.186813 5.059853
96.901802 -41.186813 5.288537
97.093849 -41.186813 4.288536
97.322029 -40.186813 4.288536
97.534004 -39.186813 4.288536
97.159401 -40.186813 5.288537
97.384621 -39.186813 5.288537
96.316078 -42.186813 6.288537
96.664925 -41.186813 6.288537
95.949196 -42.153946 7.288537
96.354378 -41.186813 7.288537
96.949196 -40.199371 6.288537
96.678322 -40.186813 7.288537
96.949196 -40.186813 6.301583
96.923988 -39.186813 7.288537
97.185005 -39.186813 6.288537
95.039864 -43.186813 8.288537
95.495338 -42.186813 8.288537
95.949196 -41.186813 8.338235
95.108498 -42.186813 9.288538
95.573372 -41.186813 9.288538
96.330299 -40.186813 8.288537
96.629097 -39.186813 8.288537
95.949196 -40.186813 9.327463
96.327065 -39.186813 9.288538
95.219643 -41.186813 10.288538
95.617043 -40.186813 10.288538
95.949196 -39.449356 10.288538
96.048286 -39.186813 10.288538
95.292976 -40.186813 11.288538
95.949196 -39.186813 10.671167
95.793068 -39.186813 11.288538
95.451393 -39.186813 12.288538
96.578896 -38.186813 -27.711472
96.460396 -37.186813 -27.711472
97.001961 -38.186813 -26.711472
96.949196 -37.878479 -26.711472
96.865974 -37.186813 -26.711472
96.347176 -36.186813 -27.711472
95.949196 -35.186813 -28.349930
96.216774 -35.186813 -27.711472
96.758064 -36.186813 -26.711472
96.643044 -35.186813 -26.711472
96.949196 -37.186813 -26.497421
97.465858 -38.186813 -25.711472
97.309914 -37.186813 -25.711472
97.949196 -38.186813 -24.894135
98.075050 -38.186813 -24.711472
97.949196 -37.348495 -24.711472
96.949196 -36.186813 -26.218872
96.949196 -35.186813 -26.023300
97.198006 -36.186813 -25.711472
97.141579 -35.186813 -25.711472
97.949196 -36.186813 -24.634779
97.949196 -35.499573 -24.711472
98.030495 -35.186813 -24.711472
95.949196 -34.186813 -28.074799
96.115273 -34.186813 -27.711472
95.949196 -33.186813 -27.955994
96.076668 -33.186813 -27.711472
96.610115 -34.186813 -26.711472
96.695686 -33.186813 -26.711472
95.949196 -32.186813 -28.015762
96.118538 -32.186813 -27.711472
95.949196 -31.186811 -28.197403
96.231148 -31.186811 -27.711472
96.949196 -32.186813 -26.582687
96.949196 -31.385023 -26.711472
96.973824 -31.186811 -26.711472
96.949196 -34.186813 -26.125549
96.949196 -33.186813 -26.380798
97.296913 -34.186813 -25.711472
97.647011 -33.186813 -25.711472
97.949196 -34.186813 -25.085632
98.424477 -34.186813 -24.711472
97.949196 -33.186813 -25.437408
98.685646 -33.186813 -24.711472
97.949196 -32.186813 -25.626953
97.949196 -31.186811 -25.669846
98.717079 -32.186813 -24.711472
98.662483 -31.186811 -24.711472
98.949196 -38.949570 -23.711470
98.949196 -38.186813 -23.678328
98.949196 -37.442108 -23.711470
98.980202 -37.186813 -23.711470
98.949196 -36.186813 -23.871809
98.949196 -35.186813 -24.108061
99.768867 -38.186813 -22.711470
99.949196 -37.643356 -22.711470
99.949196 -37.186813 -22.868788
100.115669 -37.186813 -22.711470
99.205574 -36.186813 -23.711470
99.554115 -35.186813 -23.711470
99.949196 -36.186813 -23.188383
100.494240 -36.186813 -22.711470
99.949196 -35.186813 -23.413130
100.611305 -35.186813 -22.711470
99.949196 -38.186813 -22.452009
100.445045 -38.186813 -21.711470
100.949196 -37.186813 -21.706816
100.949196 -38.056259 -20.711470
101.278633 -37.186813 -20.711470
100.949196 -36.186813 -22.137663
100.949196 -35.186813 -22.074644
101.145515 -36.186813 -21.711470
101.047981 -35.186813 -21.711470
101.296181 -36.186813 -20.711470
101.087196 -35.186813 -20.711470
98.949196 -34.186813 -24.310575
98.949196 -33.186813 -24.417479
98.949196 -32.186813 -24.377989
98.949196 -31.186811 -24.237288
99.642738 -34.186813 -23.711470
99.526802 -33.186813 -23.711470
99.949196 -34.186813 -23.380247
100.382973 -34.186813 -22.711470
99.949196 -33.186813 -22.948271
100.039314 -33.186813 -22.711470
99.384499 -32.186813 -23.711470
99.262123 -31.186811 -23.711470
99.949196 -32.814728 -22.711470
99.827858 -32.186813 -22.711470
99.710426 -31.186811 -22.711470
100.949196 -34.824875 -21.711470
100.702888 -34.186813 -21.711470
100.268929 -33.186813 -21.711470
100.949196 -34.768066 -20.711470
100.710823 -34.186813 -20.711470
100.283516 -33.186813 -20.711470
99.949196 -32.186813 -22.117704
100.000160 -32.186813 -21.711470
99.949196 -31.854734 -21.711470
99.904823 -31.186811 -21.711470
100.012367 -32.186813 -20.711470
99.949196 -31.630888 -20.711470
99.941139 -31.186811 -20.711470
95.949196 -30.186811 -28.366455
96.331429 -30.186811 -27.711472
95.949196 -29.186811 -28.382645
96.331917 -29.186811 -27.711472
97.038551 -30.186811 -26.711472
96.972694 -29.186811 -26.711472
95.949196 -28.186811 -28.265915
96.292824 -28.186811 -27.711472
95.949196 -27.186810 -28.167419
96.273262 -27.186810 -27.711472
96.952705 -28.186811 -26.711472
97.044258 -27.186810 -26.711472
97.949196 -30.186811 -25.565140
97.682381 -29.186811 -25.711472
98.558266 -30.186811 -24.711472
97.949196 -29.186811 -25.342911
98.452705 -29.186811 -24.711472
97.703590 -28.186811 -25.711472
97.949196 -27.228102 -25.711472
97.949196 -28.186811 -25.414825
98.630287 -28.186811 -24.711472
98.949196 -27.527906 -24.711472
98.949196 -27.186810 -24.887680
99.153542 -27.186810 -24.711472
95.949196 -26.186810 -28.205734
96.344643 -26.186810 -27.711472
95.949196 -25.186810 -28.539093
96.718666 -25.186810 -27.711472
96.949196 -26.186810 -27.032959
96.949196 -25.186810 -27.504288
97.301369 -26.186810 -26.711472
97.949196 -25.239697 -26.711472
96.949196 -24.844372 -27.711472
96.949196 -24.186810 -28.313782
97.707558 -24.186810 -27.711472
97.949196 -24.005535 -27.711472
98.949196 -23.323788 -27.711472
97.949196 -24.186810 -27.541489
98.949196 -24.429592 -26.711472
98.949196 -24.186810 -26.935013
97.949196 -26.186810 -26.142929
98.533577 -26.186810 -25.711472
98.949196 -25.749050 -25.711472
98.949196 -25.186810 -26.125916
98.949196 -26.186810 -25.433517
99.326820 -24.186810 -26.711472
99.138100 -23.186810 -27.711472
99.949196 -23.186810 -27.264221
99.949196 -23.790432 -26.711472
100.811836 -23.186810 -26.711472
99.525612 -25.186810 -25.711472
99.760139 -26.186810 -24.711472
99.949196 -25.911419 -24.711472
99.949196 -25.186810 -25.356567
100.443398 -25.186810 -24.711472
99.949196 -24.186810 -26.303497
99.949196 -24.789745 -25.711472
100.603310 -24.186810 -25.711472
100.949196 -23.861019 -25.711472
100.949196 -23.186810 -26.596268
100.949196 -24.186810 -25.202042
100.949196 -24.464260 -24.711472
101.548744 -23.186810 -25.711472
101.143318 -24.186810 -24.711472
101.784370 -23.186810 -24.711472
98.949196 -30.186811 -24.077375
98.949196 -29.186811 -24.081266
98.949196 -28.186811 -24.395506
99.185768 -30.186811 -23.711470
99.254189 -29.186811 -23.711470
99.709480 -30.186811 -22.711470
99.949196 -29.186811 -22.538145
99.584663 -28.186811 -23.711470
99.949196 -27.288801 -23.711470
99.949196 -27.186810 -23.774092
99.949196 -28.857145 -22.711470
99.949196 -28.186811 -23.118071
100.109688 -28.186811 -22.711470
100.312416 -27.186810 -22.711470
99.949196 -30.385527 -21.711470
99.980537 -30.186811 -21.711470
100.183449 -29.186811 -21.711470
100.070168 -30.186811 -20.711470
100.262520 -29.186811 -20.711470
100.343788 -28.186811 -21.711470
100.445808 -27.186810 -21.711470
100.392769 -28.186811 -20.711470
100.471321 -27.186810 -20.711470
99.949196 -26.186810 -24.475431
100.331825 -26.186810 -23.711470
100.780159 -25.186810 -23.711470
100.505684 -26.186810 -22.711470
100.808937 -25.186810 -22.711470
100.949196 -24.832943 -23.711470
100.949196 -24.790951 -22.711470
101.266914 -24.186810 -23.711470
101.715187 -23.186810 -23.711470
101.176064 -24.186810 -22.711470
101.496223 -23.186810 -22.711470
100.547188 -26.186810 -21.711470
100.768074 -25.186810 -21.711470
100.562782 -26.186810 -20.711470
100.748817 -25.186810 -20.711470
100.949196 -24.565807 -21.711470
100.949196 -24.382122 -20.711470
101.069893 -24.186810 -21.711470
101.330544 -23.186810 -21.711470
101.004311 -24.186810 -20.711470
101.258034 -23.186810 -20.711470
100.949196 -38.186813 -20.383650
100.949196 -38.428787 -19.711470
100.949196 -38.891068 -18.711470
101.053230 -38.186813 -19.711470
101.266945 -37.186813 -19.711470
101.100594 -38.186813 -18.711470
101.104927 -37.186813 -18.711470
100.633949 -35.186813 -18.711470
100.949196 -36.186813 -18.787565
100.949196 -35.312775 -19.711470
100.949196 -35.186813 -19.853254
101.177254 -36.186813 -19.711470
100.949196 -36.264175 -18.711470
100.949196 -38.681137 -17.711470
100.949196 -37.687698 -17.711470
100.949196 -37.186813 -17.990278
100.872353 -37.186813 -17.711470
100.688179 -38.186813 -16.711468
100.949196 -38.186813 -17.620207
100.618263 -37.186813 -16.711468
100.679451 -36.186813 -17.711470
100.421791 -35.186813 -17.711470
100.491066 -36.186813 -16.711468
100.297737 -35.186813 -16.711468
100.527657 -34.186813 -19.711470
100.189796 -33.186813 -19.711470
100.304665 -34.186813 -18.711470
100.071999 -33.186813 -18.711470
99.994820 -32.186813 -19.711470
99.949196 -31.186811 -20.343290
99.961952 -31.186811 -19.711470
99.949196 -32.186813 -18.555433
99.971840 -31.186811 -18.711470
100.155525 -34.186813 -17.711470
99.983101 -33.186813 -17.711470
100.091438 -34.186813 -16.711468
99.958687 -33.186813 -16.711468
99.949196 -32.863785 -17.711470
99.922371 -32.186813 -17.711470
99.949196 -31.507215 -17.711470
99.982216 -31.186811 -17.711470
99.923958 -32.186813 -16.711468
99.949196 -31.686064 -16.711468
99.998970 -31.186811 -16.711468
100.403969 -38.186813 -15.711469
100.407997 -37.186813 -15.711469
100.233681 -38.186813 -14.711468
100.253487 -37.186813 -14.711468
100.344643 -36.186813 -15.711469
100.204262 -35.186813 -15.711469
100.205696 -36.186813 -14.711468
100.101692 -35.186813 -14.711468
100.110878 -38.186813 -13.711468
100.103035 -37.186813 -13.711468
99.944801 -38.186813 -12.711468
99.936287 -37.186813 -12.711468
100.054726 -36.186813 -13.711468
99.995827 -35.186813 -13.711468
99.949196 -36.186813 -13.022350
99.906471 -36.186813 -12.711468
99.888496 -35.186813 -12.711468
99.949196 -35.186813 -13.292019
100.046211 -34.186813 -15.711469
99.949196 -33.171860 -15.711469
99.990883 -34.186813 -14.711468
99.949196 -33.584854 -14.711468
99.935738 -33.186813 -14.711468
99.939278 -32.186813 -15.711469
99.949196 -31.975798 -15.711469
100.016640 -31.186811 -15.711469
99.949196 -32.186813 -14.870358
99.949196 -32.203094 -14.711468
100.029366 -31.186811 -14.711468
99.949196 -34.275146 -13.711468
99.931618 -33.186813 -13.711468
99.884773 -34.186813 -12.711468
99.904793 -33.186813 -12.711468
99.949196 -32.422928 -13.711468
99.959846 -32.186813 -13.711468
100.036690 -31.186811 -13.711468
99.949196 -32.186813 -12.767330
99.948036 -32.186813 -12.711468
100.041634 -31.186811 -12.711468
100.100777 -30.186811 -19.711470
100.263344 -29.186811 -19.711470
100.108742 -30.186811 -18.711470
100.243721 -29.186811 -18.711470
100.362190 -28.186811 -19.711470
100.425026 -27.186810 -19.711470
100.332375 -28.186811 -18.711470
100.406258 -27.186810 -18.711470
100.116737 -30.186811 -17.711470
100.229683 -29.186811 -17.711470
100.130928 -30.186811 -16.711468
100.231331 -29.186811 -16.711468
100.320320 -28.186811 -17.711470
100.423256 -27.186810 -17.711470
100.321388 -28.186811 -16.711468
100.441658 -27.186810 -16.711468
100.536781 -26.186810 -19.711470
100.724831 -25.186810 -19.711470
100.542244 -26.186810 -18.711470
100.734474 -25.186810 -18.711470
100.949196 -24.196239 -19.711470
100.949196 -24.186810 -19.499815
100.949196 -24.186810 -18.519361
101.222603 -23.186810 -19.711470
101.196327 -23.186810 -18.711470
100.577583 -26.186810 -17.711470
100.766212 -25.186810 -17.711470
100.604073 -26.186810 -16.711468
100.793129 -25.186810 -16.711468
100.949196 -24.240688 -17.711470
100.949196 -24.334789 -16.711468
101.165962 -23.186810 -17.711470
101.138374 -23.186810 -16.711468
100.141731 -30.186811 -15.711469
100.235909 -29.186811 -15.711469
100.145515 -30.186811 -14.711468
100.246101 -29.186811 -14.711468
100.334938 -28.186811 -15.711469
100.478615 -27.186810 -15.711469
100.370064 -28.186811 -14.711468
100.544258 -27.186810 -14.711468
100.156532 -30.186811 -13.711468
100.277534 -29.186811 -13.711468
100.187050 -30.186811 -12.711468
100.323830 -29.186811 -12.711468
100.421700 -28.186811 -13.711468
100.605598 -27.186810 -13.711468
100.467262 -28.186811 -12.711468
100.640785 -27.186810 -12.711468
100.650673 -26.186810 -15.711469
100.834389 -25.186810 -15.711469
100.718849 -26.186810 -14.711468
100.878609 -25.186810 -14.711468
100.949196 -24.492214 -15.711469
100.949196 -24.677135 -14.711468
100.995552 -24.186810 -15.711469
101.121925 -23.186810 -15.711469
101.010262 -24.186810 -14.711468
101.115211 -23.186810 -14.711468
100.768074 -26.186810 -13.711468
100.904915 -25.186810 -13.711468
100.787514 -26.186810 -12.711468
100.914986 -25.186810 -12.711468
100.949196 -24.841305 -13.711468
100.949196 -24.930309 -12.711468
101.025093 -24.186810 -13.711468
101.121407 -23.186810 -13.711468
101.040565 -24.186810 -12.711468
101.135536 -23.186810 -12.711468
99.949196 -22.186810 -28.158661
99.949196 -22.662991 -27.711472
100.858162 -22.186810 -27.711472
100.949196 -22.186810 -27.665314
101.949196 -21.525173 -27.711472
101.949196 -21.186810 -28.174026
102.323219 -21.186810 -27.711472
101.949196 -22.186810 -26.678604
102.809273 -21.186810 -26.711472
102.949196 -20.186810 -27.924423
102.949196 -20.361141 -27.711472
102.949196 -20.980801 -26.711472
101.949196 -22.699734 -25.711472
102.380745 -22.186810 -25.711472
102.949196 -21.186810 -26.424576
102.949196 -21.456432 -25.711472
101.949196 -22.927410 -24.711472
102.450935 -22.186810 -24.711472
102.949196 -21.393047 -24.711472
102.949196 -15.984949 -24.711472
102.949196 -15.186808 -25.285431
102.710426 -15.186808 -24.711472
101.949196 -22.654430 -23.711470
102.176643 -22.186810 -23.711470
102.609993 -21.186810 -23.711470
102.949196 -21.186810 -24.407637
101.949196 -22.186810 -23.110777
101.819740 -22.186810 -22.711470
101.949196 -21.785122 -22.711470
102.122017 -21.186810 -22.711470
102.840584 -20.186810 -23.711470
102.284309 -20.186810 -22.711470
102.291084 -19.186810 -22.711470
102.860603 -19.186810 -23.711470
101.583229 -22.186810 -21.711470
101.949196 -21.186810 -22.210234
101.813026 -21.186810 -21.711470
101.477364 -22.186810 -20.711470
101.666267 -21.186810 -20.711470
101.932350 -20.186810 -21.711470
101.936714 -19.186810 -21.711470
101.778236 -20.186810 -20.711470
101.790718 -19.186810 -20.711470
102.949196 -18.186808 -23.953993
102.781075 -18.186808 -23.711470
102.622597 -17.186808 -23.711470
102.949196 -17.186808 -24.193068
102.217171 -18.186808 -22.711470
102.104591 -17.186808 -22.711470
102.425209 -16.186808 -23.711470
102.949196 -16.186808 -24.597960
102.229286 -15.186808 -23.711470
101.949196 -16.186808 -22.556471
101.949196 -15.806757 -22.711470
101.949196 -15.186808 -22.921400
101.903053 -15.186808 -22.711470
101.949196 -18.186808 -21.920271
101.899239 -18.186808 -21.711470
101.848640 -17.186808 -21.711470
101.949196 -17.186808 -22.190504
101.773964 -18.186808 -20.711470
101.753426 -17.186808 -20.711470
101.795357 -16.186808 -21.711470
101.766212 -15.186808 -21.711470
101.726631 -16.186808 -20.711470
101.721443 -15.186808 -20.711470
103.058144 -20.186810 -27.711472
103.606850 -19.186810 -27.711472
103.423653 -20.186810 -26.711472
103.825569 -19.186810 -26.711472
103.115944 -21.186810 -25.711472
103.047371 -21.186810 -24.711472
103.577583 -20.186810 -25.711472
103.800819 -19.186810 -25.711472
103.377785 -20.186810 -24.711472
103.465614 -19.186810 -24.711472
103.949196 -18.186808 -27.762741
103.957130 -18.186808 -27.711472
104.044136 -17.186808 -27.711472
103.949196 -18.658991 -26.711472
104.004890 -18.186808 -26.711472
103.949196 -16.991877 -26.711472
103.949196 -16.435282 -27.711472
103.949196 -16.186808 -28.278961
103.887459 -16.186808 -27.711472
103.513374 -15.186808 -27.711472
103.753365 -16.186808 -26.711472
103.379097 -15.186808 -26.711472
103.949196 -18.186808 -26.148483
103.858345 -18.186808 -25.711472
103.764290 -17.186808 -25.711472
103.949196 -17.186808 -26.492386
103.428932 -18.186808 -24.711472
103.284584 -17.186808 -24.711472
103.501595 -16.186808 -25.711472
103.124825 -15.186808 -25.711472
102.509773 -13.186808 -27.711472
103.029457 -14.186808 -27.711472
102.434608 -13.186808 -26.711472
102.949196 -14.248240 -26.711472
102.949196 -14.186808 -26.957031
101.987282 -12.186807 -27.711472
101.547432 -11.186807 -27.711472
101.970955 -12.186807 -26.711472
101.571968 -11.186807 -26.711472
102.706581 -14.186808 -25.711472
102.949196 -14.746592 -25.711472
102.281013 -13.186808 -25.711472
102.383553 -14.186808 -24.711472
102.073647 -13.186808 -24.711472
101.949196 -12.186807 -26.340912
101.949196 -12.318566 -25.711472
101.576790 -11.186807 -25.711472
101.809975 -12.186807 -24.711472
101.949196 -12.726907 -24.711472
101.580421 -11.186807 -24.711472
100.949196 -9.594583 -27.711472
100.822060 -9.186806 -27.711472
100.949196 -9.203362 -26.711472
101.161385 -10.186807 -27.711472
101.233864 -10.186807 -26.711472
100.523964 -8.186806 -27.711472
100.234627 -7.186806 -27.711472
100.696480 -8.186806 -26.711472
100.453712 -7.186806 -26.711472
101.305244 -10.186807 -25.711472
101.073280 -9.186806 -25.711472
101.383308 -10.186807 -24.711472
101.201027 -9.186806 -24.711472
100.949196 -8.617256 -25.711472
100.861794 -8.186806 -25.711472
100.666969 -7.186806 -25.711472
100.949196 -8.186806 -25.195236
100.949196 -7.710365 -24.711472
100.872322 -7.186806 -24.711472
101.029671 -8.186806 -24.711472
102.044167 -14.186808 -23.711470
101.949196 -13.661692 -23.711470
101.949196 -13.186808 -24.100691
101.878426 -13.186808 -23.711470
101.834908 -14.186808 -22.711470
101.949196 -14.186808 -23.366179
101.765266 -13.186808 -22.711470
101.719704 -12.186807 -23.711470
101.574593 -11.186807 -23.711470
101.682350 -12.186807 -22.711470
101.589424 -11.186807 -22.711470
101.750557 -14.186808 -21.711470
101.736031 -13.186808 -21.711470
101.737740 -14.186808 -20.711470
101.758095 -13.186808 -20.711470
101.706032 -12.186807 -21.711470
101.650459 -11.186807 -21.711470
101.762215 -12.186807 -20.711470
101.744576 -11.186807 -20.711470
101.446663 -10.186807 -23.711470
101.320625 -9.186806 -23.711470
101.509956 -10.186807 -22.711470
101.436897 -9.186806 -22.711470
100.949196 -7.186806 -24.318403
101.198677 -8.186806 -23.711470
101.080269 -7.186806 -23.711470
101.362343 -8.186806 -22.711470
101.286446 -7.186806 -22.711470
101.608192 -10.186807 -21.711470
101.573647 -9.186806 -21.711470
101.740120 -10.186807 -20.711470
101.732918 -9.186806 -20.711470
101.529945 -8.186806 -21.711470
101.480202 -7.186806 -21.711470
101.707497 -8.186806 -20.711470
101.676186 -7.186806 -20.711470
101.448524 -22.186810 -19.711470
101.607460 -21.186810 -19.711470
101.409981 -22.186810 -18.711470
101.547737 -21.186810 -18.711470
101.700935 -20.186810 -19.711470
101.720253 -19.186810 -19.711470
101.634590 -20.186810 -18.711470
101.668282 -19.186810 -18.711470
101.339668 -22.186810 -17.711470
101.466438 -21.186810 -17.711470
101.279213 -22.186810 -16.711468
101.397316 -21.186810 -16.711468
101.565865 -20.186810 -17.711470
101.616859 -19.186810 -17.711470
101.500252 -20.186810 -16.711468
101.566261 -19.186810 -16.711468
101.719032 -18.186808 -19.711470
101.717964 -17.186808 -19.711470
101.677376 -18.186808 -18.711470
101.694893 -17.186808 -18.711470
101.710304 -16.186808 -19.711470
101.723701 -15.186808 -19.711470
101.713387 -16.186808 -18.711470
101.744484 -15.186808 -18.711470
101.633980 -18.186808 -17.711470
101.674385 -17.186808 -17.711470
101.603737 -18.186808 -16.711468
101.663429 -17.186808 -16.711468
101.720375 -16.186808 -17.711470
101.764534 -15.186808 -17.711470
101.723824 -16.186808 -16.711468
101.780769 -15.186808 -16.711468
101.239510 -22.186810 -15.711469
101.350014 -21.186810 -15.711469
101.221565 -22.186810 -14.711468
101.328468 -21.186810 -14.711468
101.451820 -20.186810 -15.711469
101.529854 -19.186810 -15.711469
101.429420 -20.186810 -14.711468
101.516701 -19.186810 -14.711468
101.218391 -22.186810 -13.711468
101.325478 -21.186810 -13.711468
101.221169 -22.186810 -12.711468
101.329475 -21.186810 -12.711468
101.432350 -20.186810 -13.711468
101.532204 -19.186810 -13.711468
101.449440 -20.186810 -12.711468
101.562599 -19.186810 -12.711468
101.590919 -18.186808 -15.711469
101.661781 -17.186808 -15.711469
101.596901 -18.186808 -14.711468
101.681770 -17.186808 -14.711468
101.735146 -16.186808 -15.711469
101.813820 -15.186808 -15.711469
101.774117 -16.186808 -14.711468
101.869453 -15.186808 -14.711468
101.631721 -18.186808 -13.711468
101.734352 -17.186808 -13.711468
101.678200 -18.186808 -12.711468
101.798195 -17.186808 -12.711468
101.837654 -16.186808 -13.711468
101.934517 -15.186808 -13.711468
101.905830 -16.186808 -12.711468
101.949196 -15.762293 -12.711468
101.949196 -15.186808 -13.505077
102.000404 -15.186808 -12.711468
101.758644 -14.186808 -19.711470
101.795845 -13.186808 -19.711470
101.794106 -14.186808 -18.711470
101.845039 -13.186808 -18.711470
101.829781 -12.186807 -19.711470
101.858376 -11.186807 -19.711470
101.899483 -12.186807 -18.711470
101.949196 -11.429513 -18.711470
101.965126 -11.186807 -18.711470
101.830605 -14.186808 -17.711470
101.895363 -13.186808 -17.711470
101.858742 -14.186808 -16.711468
101.936317 -13.186808 -16.711468
101.949196 -12.309381 -17.711470
102.047615 -11.186807 -17.711470
102.020851 -12.186807 -16.711468
102.124977 -11.186807 -16.711468
101.891853 -10.186807 -19.711470
101.903572 -9.186806 -19.711470
101.949196 -10.186807 -19.337965
102.032051 -10.186807 -18.711470
101.949196 -9.186806 -19.452223
102.066719 -9.186806 -18.711470
101.891548 -8.186806 -19.711470
101.877083 -7.186806 -19.711470
101.949196 -8.186806 -19.416121
102.079781 -8.186806 -18.711470
101.949196 -7.186806 -19.378141
102.087990 -7.186806 -18.711470
102.139992 -10.186807 -17.711470
102.203621 -9.186806 -17.711470
102.226967 -10.186807 -16.711468
102.306374 -9.186806 -16.711468
102.244331 -8.186806 -17.711470
102.273415 -7.186806 -17.711470
102.362587 -8.186806 -16.711468
102.401466 -7.186806 -16.711468
101.899910 -14.186808 -15.711469
101.949196 -13.635462 -15.711469
101.949196 -13.186808 -16.398861
101.988930 -13.186808 -15.711469
101.949196 -14.186808 -14.841977
101.949196 -14.264414 -14.711468
102.056435 -13.186808 -14.711468
102.095772 -12.186807 -15.711469
102.206947 -11.186807 -15.711469
102.176460 -12.186807 -14.711468
102.285835 -11.186807 -14.711468
102.025764 -14.186808 -13.711468
102.133644 -13.186808 -13.711468
102.097633 -14.186808 -12.711468
102.212502 -13.186808 -12.711468
102.256264 -12.186807 -13.711468
102.359505 -11.186807 -13.711468
102.324562 -12.186807 -12.711468
102.421181 -11.186807 -12.711468
102.305336 -10.186807 -15.711469
102.391853 -9.186806 -15.711469
102.373848 -10.186807 -14.711468
102.459206 -9.186806 -14.711468
102.458870 -8.186806 -15.711469
102.500099 -7.186806 -15.711469
102.533913 -8.186806 -14.711468
102.580940 -7.186806 -14.711468
102.442055 -10.186807 -13.711468
102.517281 -9.186806 -13.711468
102.509682 -10.186807 -12.711468
102.577217 -9.186806 -12.711468
102.585304 -8.186806 -13.711468
102.636635 -7.186806 -13.711468
102.628517 -8.186806 -12.711468
102.671547 -7.186806 -12.711468
99.775887 -38.186813 -11.711468
99.780678 -37.186813 -11.711468
99.645454 -38.186813 -10.711468
99.651924 -37.186813 -10.711468
99.768837 -36.186813 -11.711468
99.768837 -35.186813 -11.711468
99.648079 -36.186813 -10.711468
99.658791 -35.186813 -10.711468
99.498878 -38.186813 -9.711467
99.528816 -37.186813 -9.711467
99.315956 -38.186813 -8.711467
99.390755 -37.186813 -8.711467
99.546669 -36.186813 -9.711467
99.564980 -35.186813 -9.711467
99.442238 -36.186813 -8.711467
99.464119 -35.186813 -8.711467
99.783699 -34.186813 -11.711468
99.826851 -33.186813 -11.711468
99.673409 -34.186813 -10.711468
99.730324 -33.186813 -10.711468
99.901436 -32.186813 -11.711468
99.949196 -31.805326 -11.711468
100.038399 -31.186811 -11.711468
99.856056 -32.186813 -10.711468
99.949196 -31.689680 -10.711468
100.045815 -31.186811 -10.711468
99.584297 -34.186813 -9.711467
99.667274 -33.186813 -9.711467
99.513832 -34.186813 -8.711467
99.653206 -33.186813 -8.711467
99.848030 -32.186813 -9.711467
99.949196 -31.753050 -9.711467
100.065407 -31.186811 -9.711467
99.867592 -32.186813 -8.711467
99.949196 -31.831526 -8.711467
100.063454 -31.186811 -8.711467
98.949196 -38.219406 -5.711466
98.841469 -38.186813 -4.711466
98.949196 -38.186813 -5.674936
98.949196 -37.186813 -4.875208
99.153023 -38.186813 -7.711467
99.241829 -37.186813 -7.711467
99.039345 -38.186813 -6.711466
99.114784 -37.186813 -6.711466
99.315895 -36.186813 -7.711467
99.365242 -35.186813 -7.711467
99.199593 -36.186813 -6.711466
99.298500 -35.186813 -6.711466
99.024513 -37.186813 -5.711466
99.124886 -36.186813 -5.711466
99.269630 -35.186813 -5.711466
99.071907 -36.186813 -4.711466
98.949196 -37.065155 -4.711466
99.257149 -35.186813 -4.711466
99.469826 -34.186813 -7.711467
99.666328 -33.186813 -7.711467
99.459175 -34.186813 -6.711466
99.684792 -33.186813 -6.711466
99.882301 -32.186813 -7.711467
99.949196 -31.842100 -7.711467
100.040840 -31.186811 -7.711467
99.878975 -32.186813 -6.711466
99.949196 -31.729795 -6.711466
100.011177 -31.186811 -6.711466
99.462990 -34.186813 -5.711466
99.693947 -33.186813 -5.711466
99.462196 -34.186813 -4.711466
99.687141 -33.186813 -4.711466
99.866585 -32.186813 -5.711466
99.949196 -31.533033 -5.711466
99.984566 -31.186811 -5.711466
99.862862 -32.186813 -4.711466
99.949196 -31.537016 -4.711466
99.987740 -31.186811 -4.711466
100.218452 -30.186811 -11.711468
100.359322 -29.186811 -11.711468
100.237740 -30.186811 -10.711468
100.369881 -29.186811 -10.711468
100.491127 -28.186811 -11.711468
100.646706 -27.186810 -11.711468
100.490761 -28.186811 -10.711468
100.625435 -27.186810 -10.711468
100.231331 -30.186811 -9.711467
100.352150 -29.186811 -9.711467
100.195290 -30.186811 -8.711467
100.312325 -29.186811 -8.711467
100.472450 -28.186811 -9.711467
100.593971 -27.186810 -9.711467
100.434364 -28.186811 -8.711467
100.563301 -27.186810 -8.711467
100.780556 -26.186810 -11.711468
100.911354 -25.186810 -11.711468
100.751289 -26.186810 -10.711468
100.896736 -25.186810 -10.711468
100.949196 -24.918575 -11.711468
100.949196 -24.846233 -10.711468
101.047035 -24.186810 -11.711468
101.149361 -23.186810 -11.711468
101.045357 -24.186810 -10.711468
101.156105 -23.186810 -10.711468
100.721809 -26.186810 -9.711467
100.882301 -25.186810 -9.711467
100.713936 -26.186810 -8.711467
100.882240 -25.186810 -8.711467
100.949196 -24.775509 -9.711467
100.949196 -24.768520 -8.711467
101.038216 -24.186810 -9.711467
101.154060 -23.186810 -9.711467
101.033852 -24.186810 -8.711467
101.142647 -23.186810 -8.711467
100.156441 -30.186811 -7.711467
100.269264 -29.186811 -7.711467
100.128181 -30.186811 -6.711466
100.240089 -29.186811 -6.711466
100.385933 -28.186811 -7.711467
100.538094 -27.186810 -7.711467
100.354469 -28.186811 -6.711466
100.526222 -27.186810 -6.711466
100.115364 -30.186811 -5.711466
100.240700 -29.186811 -5.711466
100.131935 -30.186811 -4.711466
100.277290 -29.186811 -4.711466
100.362221 -28.186811 -5.711466
100.538826 -27.186810 -5.711466
100.408760 -28.186811 -4.711466
100.575630 -27.186810 -4.711466
100.724251 -26.186810 -7.711467
100.887245 -25.186810 -7.711467
100.736824 -26.186810 -6.711466
100.885628 -25.186810 -6.711466
100.949196 -24.736324 -7.711467
100.949196 -24.556622 -6.711466
101.017036 -24.186810 -7.711467
101.113716 -23.186810 -7.711467
100.983437 -24.186810 -6.711466
101.069679 -23.186810 -6.711466
100.743202 -26.186810 -5.711466
100.872963 -25.186810 -5.711466
100.743996 -26.186810 -4.711466
100.842018 -25.186810 -4.711466
100.949196 -24.176708 -5.711466
100.905556 -24.186810 -4.711466
100.949196 -23.480450 -4.711466
101.021217 -23.186810 -5.711466
100.964729 -23.186810 -4.711466
98.691933 -38.186813 -3.711466
98.832893 -37.186813 -3.711466
98.534523 -38.186813 -2.711465
98.727852 -37.186813 -2.711465
98.949196 -36.505798 -3.711466
98.949196 -36.167236 -2.711465
98.391823 -38.186813 -1.711465
98.629646 -37.186813 -1.711465
98.268867 -38.186813 -0.711465
98.510048 -37.186813 -0.711465
98.858772 -36.186813 -1.711465
98.949196 -35.827652 -1.711465
98.727730 -36.186813 -0.711465
98.949196 -35.186813 -0.560433
99.013771 -36.186813 -3.711466
99.234718 -35.186813 -3.711466
99.185982 -35.186813 -2.711465
99.100258 -35.186813 -1.711465
99.449318 -34.186813 -3.711466
99.669746 -33.186813 -3.711466
99.411446 -34.186813 -2.711465
99.630165 -33.186813 -2.711465
99.866219 -32.186813 -3.711466
99.949196 -31.671354 -3.711466
100.011116 -31.186811 -3.711466
99.850136 -32.186813 -2.711465
99.949196 -31.680189 -2.711465
100.021675 -31.186811 -2.711465
99.343452 -34.186813 -1.711465
99.556923 -33.186813 -1.711465
99.220985 -34.186813 -0.711465
99.420723 -33.186813 -0.711465
99.782509 -32.186813 -1.711465
99.949196 -31.402647 -1.711465
99.982002 -31.186811 -1.711465
99.649330 -32.186813 -0.711465
99.949196 -31.186811 -1.359246
99.874397 -31.186811 -0.711465
98.160622 -38.186813 0.288535
98.361214 -37.186813 0.288535
97.949196 -38.783890 1.288536
98.053566 -38.186813 1.288536
98.213966 -37.186813 1.288536
98.564949 -36.186813 0.288535
98.811989 -35.186813 0.288535
98.417183 -36.186813 1.288536
98.651161 -35.186813 1.288536
97.949196 -38.186813 2.303154
98.092537 -37.186813 2.288536
97.842812 -38.186813 3.288536
97.949196 -37.541855 3.288536
98.006783 -37.186813 3.288536
98.294197 -36.186813 2.288536
98.499275 -35.186813 2.288536
98.202248 -36.186813 3.288536
98.387093 -35.186813 3.288536
98.949196 -34.567398 0.288535
98.949196 -34.186813 0.714881
98.847267 -34.186813 1.288536
98.949196 -33.713547 1.288536
98.695015 -34.186813 2.288536
98.949196 -33.129517 2.288536
98.598396 -34.186813 3.288536
98.836952 -33.186813 3.288536
98.949196 -32.480682 3.288536
99.035713 -34.186813 0.288535
99.234322 -33.186813 0.288535
99.062813 -33.186813 1.288536
99.480904 -32.186813 0.288535
99.706764 -31.186811 0.288535
99.298866 -32.186813 1.288536
99.489113 -31.186811 1.288536
99.132210 -32.186813 2.288536
99.277504 -31.186811 2.288536
98.990639 -32.186813 3.288536
99.115059 -31.186811 3.288536
100.158760 -30.186811 -3.711466
100.318550 -29.186811 -3.711466
100.163033 -30.186811 -2.711465
100.319893 -29.186811 -2.711465
100.457741 -28.186811 -3.711466
100.597633 -27.186810 -3.711466
100.463570 -28.186811 -2.711465
100.569283 -27.186810 -2.711465
100.116341 -30.186811 -1.711465
100.256752 -29.186811 -1.711465
99.949196 -30.615995 -0.711465
100.002235 -30.186811 -0.711465
100.119362 -29.186811 -0.711465
100.397072 -28.186811 -1.711465
100.479591 -27.186810 -1.711465
100.250465 -28.186811 -0.711465
100.331551 -27.186810 -0.711465
100.718391 -26.186810 -3.711466
100.788704 -25.186810 -3.711466
100.646614 -26.186810 -2.711465
100.705421 -25.186810 -2.711465
100.844612 -24.186810 -3.711466
