-65.471649 38.411194 -51.721451
-66.172333 38.966431 -51.721451
-63.471649 37.288239 -52.721451
-64.471649 37.966431 -52.618149
-64.814911 37.966431 -51.721451
-64.471649 37.727997 -51.721451
-63.471649 37.051514 -51.721451
-63.471649 36.740356 -49.721451
-63.868744 36.966431 -49.721451
-63.606659 36.966431 -50.721451
-65.471649 38.159912 -50.721451
-66.535492 38.966431 -50.721451
-66.471649 38.966431 -50.909256
-66.471649 38.670685 -49.721451
-66.837616 38.966431 -49.721451
-65.471649 37.966431 -49.688980
-64.471649 37.496307 -50.721451
-65.175507 37.966431 -50.721451
-63.471649 36.966431 -51.213516
-64.471649 37.325684 -49.721451
-57.471653 34.541077 -56.721451
-58.132664 34.966431 -56.721451
-57.471653 34.325684 -55.721451
-58.553135 34.966431 -55.721451
-58.471653 34.966431 -55.928116
-56.649693 33.966431 -56.721451
-56.471653 33.966431 -57.346268
-56.471653 33.827362 -56.721451
-55.471653 33.045471 -56.721451
-56.471653 33.686920 -55.721451
-56.878941 33.966431 -55.721451
-55.462559 32.966431 -55.721451
-55.471653 32.860046 -53.721451
-55.643528 32.966431 -53.721451
-55.549107 32.966431 -54.721451
-58.471653 34.732513 -54.721451
-58.912632 34.966431 -54.721451
-57.471653 34.188751 -54.721451
-58.471653 34.623627 -53.721451
-59.187168 34.966431 -53.721451
-57.471653 34.095551 -53.721451
-56.471653 33.586761 -54.721451
-57.069065 33.966431 -54.721451
-56.471653 33.502014 -53.721451
-57.228611 33.966431 -53.721451
-60.851776 36.966431 -56.721451
-60.471653 36.966431 -57.344284
-60.471653 36.653320 -56.721451
-59.471653 35.966431 -56.893448
-59.571690 35.966431 -56.721451
-59.471653 35.536163 -55.721451
-60.112339 35.966431 -55.721451
-60.471653 36.224701 -55.721451
-61.471649 36.966431 -55.654526
-62.026825 37.966431 -56.721451
-61.471649 37.966431 -57.528580
-61.471649 37.494751 -56.721451
-63.055695 38.966431 -56.721451
-62.471649 38.966431 -57.522507
-62.471649 38.368469 -56.721451
-62.677765 37.966431 -55.721451
-62.471649 37.966431 -56.049240
-62.471649 37.801880 -55.721451
-62.033783 36.966431 -54.721451
-61.471649 36.545349 -54.721451
-61.471649 36.206635 -53.721451
-62.574554 36.966431 -53.721451
-62.471649 36.966431 -53.934860
-59.471653 35.257172 -54.721451
-60.619053 35.966431 -54.721451
-60.471653 35.966431 -55.015610
-60.471653 35.614594 -53.721451
-61.064301 35.966431 -53.721451
-59.471653 35.091766 -53.721451
-62.471649 37.302673 -54.721451
-63.350983 37.966431 -54.721451
-58.471653 35.194794 -56.721451
-59.471653 34.813568 -50.721451
-59.830296 34.966431 -50.721451
-59.600986 34.966431 -51.721451
-59.471653 34.648315 -49.721451
-60.133945 34.966431 -49.721451
-55.471653 32.823547 -52.721451
-55.720554 32.966431 -52.721451
-55.471653 32.782959 -51.721451
-55.808384 32.966431 -51.721451
-58.471653 34.539734 -52.721451
-59.471653 34.992401 -52.721451
-57.471653 34.012299 -52.721451
-58.471653 34.454773 -51.721451
-59.471653 34.966431 -52.398514
-57.471653 33.966431 -52.176895
-57.543430 33.966431 -51.721451
-56.471653 33.425262 -52.721451
-56.471653 33.352234 -51.721451
-55.471653 32.717224 -50.721451
-55.936314 32.966431 -50.721451
-55.471653 32.613281 -49.721451
-56.142673 32.966431 -49.721451
-57.471653 33.806641 -50.721451
-57.773716 33.966431 -50.721451
-58.471653 34.326538 -50.721451
-57.471653 33.652710 -49.721451
-58.107334 33.966431 -49.721451
-58.471653 34.148590 -49.721451
-56.471653 33.268707 -50.721451
-56.471653 33.143677 -49.721451
-62.471649 36.604340 -52.721451
-63.008820 36.966431 -52.721451
-61.471649 36.017181 -52.721451
-62.471649 36.443451 -51.721451
-61.471649 35.966431 -52.345810
-61.610382 35.966431 -51.721451
-60.471653 35.461823 -52.721451
-60.471653 35.353790 -51.721451
-61.471649 35.765411 -50.721451
-61.845917 35.966431 -50.721451
-62.471649 36.318970 -50.721451
-61.471649 35.621490 -49.721451
-62.126007 35.966431 -49.721451
-62.471649 36.162354 -49.721451
-60.471653 35.255493 -50.721451
-60.471653 35.129791 -49.721451
-55.471653 30.514894 -42.721451
-56.296116 30.966433 -42.721451
-55.547398 30.966433 -43.721451
-55.471653 30.966433 -43.806534
-57.034946 30.966433 -41.721451
-56.471653 30.966433 -42.465317
-56.471653 30.637606 -41.721451
-55.404331 29.966433 -41.721451
-67.471649 38.704956 -45.721451
-67.896027 38.966431 -45.721451
-67.641449 38.966431 -46.721451
-63.471649 36.582489 -48.721451
-64.103058 36.966431 -48.721451
-63.471649 36.426239 -47.721451
-64.471649 37.051331 -47.721451
-65.690155 37.966431 -48.721451
-65.471649 37.829773 -48.721451
-66.471649 38.499023 -48.721451
-67.111847 38.966431 -48.721451
-65.471649 37.686218 -47.721451
-65.909821 37.966431 -47.721451
-66.471649 38.350891 -47.721451
-67.471649 39.024902 -47.721451
-64.471649 37.192047 -48.721451
-63.471649 36.293793 -46.721451
-64.592560 36.966431 -46.721451
-64.471649 36.966431 -47.173996
-64.471649 36.736389 -45.721451
-64.867401 36.966431 -45.721451
-63.471649 36.180084 -45.721451
-65.471649 37.507935 -46.721451
-66.152618 37.966431 -46.721451
-66.471649 38.190430 -46.721451
-67.471649 38.966431 -47.372452
-65.471649 37.309509 -45.721451
-66.471649 37.966431 -45.566177
-67.471649 38.519318 -44.721451
-68.161224 38.966431 -44.721451
-67.471649 38.320984 -43.721451
-68.471649 38.966431 -43.546707
-68.682526 38.966431 -42.721451
-68.471649 38.822968 -42.721451
-67.471649 38.128662 -42.721451
-68.471649 38.684021 -41.721451
-68.876373 38.966431 -41.721451
-67.471649 37.966431 -41.708603
-64.471649 36.596497 -44.721451
-65.143341 36.966431 -44.721451
-63.471649 36.021423 -44.721451
-63.771027 35.966431 -43.721451
-63.471649 35.966431 -44.480911
-63.471649 35.780548 -43.721451
-64.471649 36.419220 -43.721451
-65.471649 36.997528 -43.721451
-66.700348 37.966431 -44.721451
-66.471649 37.792908 -44.721451
-65.471649 37.139313 -44.721451
-66.471649 37.610016 -43.721451
-66.958038 37.966431 -43.721451
-65.704376 36.966431 -42.721451
-65.471649 36.966431 -43.512466
-65.471649 36.827118 -42.721451
-65.471649 36.585144 -41.721451
-66.037445 36.966431 -41.721451
-63.471649 35.455261 -42.721451
-64.190948 35.966431 -42.721451
-64.471649 36.173615 -42.721451
-64.640900 35.966431 -41.721451
-64.471649 35.966431 -42.091599
-64.471649 35.835907 -41.721451
-63.471649 34.966431 -41.575912
-66.471649 37.441681 -42.721451
-67.224579 37.966431 -42.721451
-66.471649 37.259705 -41.721451
-59.471653 34.446869 -48.721451
-60.471653 34.966431 -48.692795
-60.786472 34.966431 -47.721451
-60.471653 34.786346 -47.721451
-59.471653 34.273407 -47.721451
-60.471653 34.613007 -46.721451
-61.082916 34.966431 -46.721451
-59.471653 34.117493 -46.721451
-60.471653 34.427429 -45.721451
-61.471649 35.008453 -45.721451
-59.471653 33.966431 -46.001022
-59.596348 33.966431 -45.721451
-55.471653 32.464355 -48.721451
-56.471653 32.966431 -48.619125
-56.825779 32.966431 -47.721451
-56.471653 32.789795 -47.721451
-55.471653 32.269958 -47.721451
-57.471653 33.482300 -48.721451
-58.471653 33.966431 -48.694656
-58.776402 33.966431 -47.721451
-58.471653 33.811951 -47.721451
-57.471653 33.298004 -47.721451
-57.806126 32.966431 -45.721451
-57.471653 32.966431 -46.316269
-57.471653 32.784851 -45.721451
-56.471653 32.553894 -46.721451
-57.258762 32.966431 -46.721451
-55.471653 32.031342 -46.721451
-55.911716 31.966433 -45.721451
-55.471653 31.966433 -46.491684
-55.471653 31.731173 -45.721451
-56.471653 32.260773 -45.721451
-58.471653 33.626953 -46.721451
-59.126133 33.966431 -46.721451
-57.471653 33.079712 -46.721451
-58.471653 33.344421 -45.721451
-61.471649 35.467621 -48.721451
-62.471649 35.966431 -48.530716
-62.666473 35.966431 -47.721451
-62.471649 35.855225 -47.721451
-61.471649 35.319336 -47.721451
-62.471649 35.735992 -46.721451
-62.879120 35.966431 -46.721451
-61.471649 35.170502 -46.721451
-62.471649 35.596527 -45.721451
-63.093658 35.966431 -45.721451
-61.785980 34.966431 -44.721451
-61.471649 34.966431 -45.472488
-61.471649 34.771515 -44.721451
-61.471649 34.445374 -43.721451
-62.245575 34.966431 -43.721451
-59.471653 33.574188 -44.721451
-60.148350 33.966431 -44.721451
-60.471653 34.165924 -44.721451
-60.740879 33.966431 -43.721451
-60.471653 33.966431 -44.174545
-60.471653 33.780914 -43.721451
-59.471653 33.138947 -43.721451
-59.980747 32.966431 -42.721451
-59.471653 32.966431 -43.350021
-59.471653 32.661804 -42.721451
-60.797398 32.966431 -41.721451
-60.471653 32.966431 -42.107651
-60.471653 32.747253 -41.721451
-59.471653 32.179352 -41.721451
-62.768707 34.966431 -42.721451
-62.471649 34.966431 -43.245255
-62.471649 34.742096 -42.721451
-61.408417 33.966431 -42.721451
-62.138214 33.966431 -41.721451
-61.471649 33.447723 -41.721451
-62.471649 34.231262 -41.721451
-60.471653 33.289124 -42.721451
-57.471653 32.416870 -44.721451
-58.471653 32.966431 -44.686813
-59.179905 32.966431 -43.721451
-58.471653 32.551788 -43.721451
-57.471653 31.966433 -43.586380
-55.471653 31.353243 -44.721451
-56.471653 31.966433 -44.865829
-56.582249 31.966433 -44.721451
-56.471653 31.471224 -43.721451
-58.189548 31.966433 -42.721451
-57.471653 31.594423 -42.721451
-58.471653 32.109375 -42.721451
-59.011631 31.966433 -41.721451
-58.471653 31.966433 -42.376816
-58.471653 31.690248 -41.721451
-57.471653 31.197756 -41.721451
-56.471653 31.066469 -42.721451
-62.471649 35.390381 -44.721451
-62.471649 35.115295 -43.721451
-50.204685 23.966433 -56.721451
-50.322117 24.966433 -56.721451
-49.998997 23.966433 -55.721451
-50.136936 24.966433 -55.721451
-50.471653 25.689791 -56.721451
-50.554722 25.966433 -56.721451
-50.911045 26.966433 -56.721451
-50.471653 25.966433 -56.146622
-50.396458 25.966433 -55.721451
-50.773289 26.966433 -55.721451
-50.471653 26.181459 -55.721451
-49.708591 23.966433 -54.721451
-49.867832 24.966433 -54.721451
-49.471653 23.966433 -54.039749
-49.471653 24.667574 -53.721451
-49.536777 24.966433 -53.721451
-49.367649 23.966433 -53.721451
-50.160862 25.966433 -54.721451
-50.471653 26.758150 -54.721451
-50.559055 26.966433 -54.721451
-49.858677 25.966433 -53.721451
-50.471653 26.966433 -54.404465
-50.295567 26.966433 -53.721451
-51.471653 28.240847 -56.721451
-51.879307 28.966433 -56.721451
-51.471653 28.430178 -55.721451
-51.789768 28.966433 -55.721451
-52.528965 29.966433 -56.721451
-53.275547 30.966433 -56.721451
-52.477879 29.966433 -55.721451
-53.264683 30.966433 -55.721451
-51.471653 28.713228 -54.721451
-51.632908 28.966433 -54.721451
-51.471653 28.966433 -53.951981
-52.471653 30.086794 -54.721451
-53.203281 30.966433 -54.721451
-52.227390 29.966433 -53.721451
-51.471653 29.033297 -53.721451
-52.471653 30.251802 -53.721451
-53.101109 30.966433 -53.721451
-51.335056 27.966433 -56.721451
-51.224827 27.966433 -55.721451
-51.041721 27.966433 -54.721451
-50.471653 27.366854 -53.721451
-50.800694 27.966433 -53.721451
-48.995396 23.966433 -52.721451
-49.193027 24.966433 -52.721451
-48.612827 23.966433 -51.721451
-48.840000 24.966433 -51.721451
-49.521336 25.966433 -52.721451
-49.995579 26.966433 -52.721451
-49.471653 26.544405 -51.721451
-49.697300 26.966433 -51.721451
-49.203709 25.966433 -51.721451
-48.471653 23.966433 -51.290604
-48.303867 23.966433 -50.721451
-48.471653 24.712770 -50.721451
-48.540440 24.966433 -50.721451
-48.090733 23.966433 -49.721451
-48.471653 24.966433 -50.456924
-48.338779 24.966433 -49.721451
-49.471653 26.966433 -50.879593
-48.918858 25.966433 -50.721451
-49.471653 27.032198 -50.721451
-48.471653 25.388704 -49.721451
-48.719944 25.966433 -49.721451
-49.275669 26.966433 -49.721451
-51.471653 29.305483 -52.721451
-52.062962 29.966433 -52.721451
-52.471653 30.410402 -52.721451
-52.996861 30.966433 -52.721451
-51.471653 29.513033 -51.721451
-51.915806 29.966433 -51.721451
-52.471653 30.525576 -51.721451
-52.924473 30.966433 -51.721451
-51.471653 29.645479 -50.721451
-51.814854 29.966433 -50.721451
-52.471653 30.580660 -50.721451
-52.903965 30.966433 -50.721451
-51.471653 29.704927 -49.721451
-51.769505 29.966433 -49.721451
-52.471653 30.584719 -49.721451
-52.930820 30.966433 -49.721451
-50.528355 27.966433 -52.721451
-51.215244 28.966433 -52.721451
-50.276463 27.966433 -51.721451
-50.471653 27.966433 -52.523148
-51.006992 28.966433 -51.721451
-50.471653 28.253664 -51.721451
-50.064182 27.966433 -50.721451
-50.471653 28.522066 -50.721451
-50.833591 28.966433 -50.721451
-49.471653 27.299074 -49.721451
-49.932407 27.966433 -49.721451
-50.471653 28.660311 -49.721451
-50.734837 28.966433 -49.721451
-53.471653 31.202089 -56.721451
-54.202305 31.966433 -56.721451
-54.471653 32.220032 -56.721451
-53.471653 31.202364 -55.721451
-54.230442 31.966433 -55.721451
-54.471653 32.184479 -55.721451
-53.471653 31.252199 -54.721451
-54.226597 31.966433 -54.721451
-54.471653 32.174347 -54.721451
-53.471653 31.329897 -53.721451
-54.205662 31.966433 -53.721451
-54.471653 32.172668 -53.721451
-53.471653 31.396822 -52.721451
-54.176731 31.966433 -52.721451
-54.471653 32.178894 -52.721451
-53.471653 31.424166 -51.721451
-54.180271 31.966433 -51.721451
-54.471653 32.165466 -51.721451
-53.471653 31.404238 -50.721451
-54.243565 31.966433 -50.721451
-54.471653 32.116028 -50.721451
-53.471653 31.353243 -49.721451
-54.471653 32.036713 -49.721451
-47.964939 23.966433 -48.721451
-48.217747 24.966433 -48.721451
-47.911411 23.966433 -47.721451
-48.167271 24.966433 -47.721451
-48.471653 25.686251 -48.721451
-48.603489 25.966433 -48.721451
-49.181004 26.966433 -48.721451
-48.471653 25.785341 -47.721451
-48.559544 25.966433 -47.721451
-49.145298 26.966433 -47.721451
-47.933567 23.966433 -46.721451
-48.193699 24.966433 -46.721451
-48.061253 23.966433 -45.721451
-48.329929 24.966433 -45.721451
-48.589512 25.966433 -46.721451
-48.471653 25.720186 -46.721451
-49.174778 26.966433 -46.721451
-48.723850 25.966433 -45.721451
-48.471653 25.389132 -45.721451
-49.297031 26.966433 -45.721451
-51.471653 29.693972 -48.721451
-51.792820 29.966433 -48.721451
-52.471653 30.531771 -48.721451
-53.036350 30.966433 -48.721451
-51.471653 29.599062 -47.721451
-51.920933 29.966433 -47.721451
-52.471653 30.402864 -47.721451
-53.267063 30.966433 -47.721451
-53.471653 30.569948 -45.721451
-54.136448 30.966433 -45.721451
-53.641026 30.966433 -46.721451
-51.471653 29.434267 -46.721451
-52.161411 29.966433 -46.721451
-52.471653 30.197542 -46.721451
-53.471653 30.966433 -47.099716
-51.471653 29.210299 -45.721451
-52.471653 29.966433 -45.886703
-52.539463 29.966433 -45.721451
-49.471653 27.420504 -48.721451
-49.880589 27.966433 -48.721451
-50.471653 28.687044 -48.721451
-50.721043 28.966433 -48.721451
-49.471653 27.451937 -47.721451
-49.886387 27.966433 -47.721451
-50.471653 28.635134 -47.721451
-50.784519 28.966433 -47.721451
-49.471653 27.398165 -46.721451
-49.954258 27.966433 -46.721451
-50.471653 28.520449 -46.721451
-50.923191 28.966433 -46.721451
-50.113071 27.966433 -45.721451
-49.471653 27.223940 -45.721451
-50.471653 28.333620 -45.721451
-51.157688 28.966433 -45.721451
-48.289951 23.966433 -44.721451
-48.580112 24.966433 -44.721451
-48.471653 24.966433 -45.079819
-48.471653 24.623140 -44.721451
-48.590427 23.966433 -43.721451
-48.471653 23.966433 -44.088852
-48.471653 23.598085 -43.721451
-48.937351 24.966433 -43.721451
-49.962070 26.966433 -43.721451
-49.541660 26.966433 -44.721451
-49.471653 26.186403 -43.721451
-48.979404 25.966433 -44.721451
-49.471653 26.966433 -44.931778
-49.359409 25.966433 -43.721451
-50.013340 24.966433 -41.721451
-49.471653 25.119020 -42.721451
-49.471653 23.884249 -41.721451
-48.987705 23.966433 -42.721451
-49.922276 25.966433 -42.721451
-49.471653 25.966433 -43.478256
-50.572178 26.966433 -42.721451
-50.471653 26.966433 -42.854355
-50.471653 26.824282 -42.721451
-50.673130 25.966433 -41.721451
-50.471653 25.966433 -41.957962
-50.471653 25.705935 -41.721451
-51.471653 26.879030 -41.721451
-51.471653 28.558870 -43.721451
-52.010960 28.966433 -43.721451
-51.497227 28.966433 -44.721451
-51.471653 28.966433 -44.775742
-54.740757 30.966433 -44.721451
-54.471653 30.966433 -45.122849
-54.471653 30.805269 -44.721451
-53.471653 30.213717 -44.721451
-53.683567 29.966433 -43.721451
-53.471653 29.966433 -44.025467
-53.471653 29.849581 -43.721451
-54.471653 30.388002 -43.721451
-52.471653 29.609011 -44.721451
-53.047031 29.966433 -44.721451
-52.471653 29.278322 -43.721451
-53.941624 28.966433 -41.721451
-53.471653 28.966433 -42.080521
-53.471653 28.606203 -41.721451
-51.489597 27.966433 -42.721451
-51.471653 27.966433 -42.740372
-51.471653 27.951754 -42.721451
-52.732700 28.966433 -42.721451
-52.471653 28.966433 -43.017807
-52.471653 28.776705 -42.721451
-52.661106 27.966433 -41.721451
-52.471653 27.966433 -41.858078
-52.471653 27.812929 -41.721451
-53.471653 29.427004 -42.721451
-54.471653 29.966433 -42.679245
-54.471653 29.344973 -41.721451
-50.471653 28.055941 -44.721451
-50.817722 27.966433 -43.721451
-50.471653 27.966433 -44.491104
-50.471653 27.617373 -43.721451
-53.471653 31.252718 -48.721451
-54.565403 31.966433 -48.721451
-54.471653 31.966433 -49.091354
-54.471653 31.706209 -47.721451
-54.888889 31.966433 -47.721451
-53.471653 31.089540 -47.721451
-54.471653 31.458895 -46.721451
-54.471653 31.163729 -45.721451
-59.845615 18.966434 -33.721455
-59.471653 18.966434 -34.036396
-59.471653 18.136448 -33.721455
-55.806370 18.966434 -36.721451
-55.471653 18.966434 -36.894028
-55.471653 18.596226 -36.721451
-56.588413 17.966434 -35.721455
-55.471653 17.966434 -36.313557
-55.471653 17.261570 -35.721455
-57.323643 18.966434 -35.721455
-56.471653 18.966434 -36.314167
-58.456272 16.966434 -33.721455
-57.471653 16.966434 -34.377125
-57.471653 16.297764 -33.721455
-56.874851 16.966434 -34.721455
-56.471653 16.966434 -34.946949
-56.471653 16.733494 -34.721455
-55.471653 16.966434 -35.436420
-55.471653 16.251865 -34.721455
-56.837559 15.966434 -33.721455
-56.471653 15.966434 -33.921925
-56.471653 15.779301 -33.721455
-55.471653 15.342197 -33.721455
-55.471653 15.966434 -34.412403
-58.097935 17.966434 -34.721455
-57.471653 17.966434 -35.155140
-57.471653 17.366581 -34.721455
-58.471653 18.576725 -34.721455
-58.471653 18.966434 -34.842243
-59.363865 17.966434 -33.721455
-58.471653 17.966434 -34.440907
-58.471653 16.979282 -33.721455
-60.105625 19.966434 -33.721455
-59.471653 19.966434 -34.236683
-60.301670 20.966434 -33.721455
-59.471653 20.966434 -34.358723
-60.471653 21.747257 -33.721455
-60.471653 21.966434 -33.770008
-59.471653 21.966434 -34.468494
-61.010895 22.966434 -33.721455
-60.471653 22.966434 -34.075336
-59.471653 23.100222 -34.721455
-57.471653 19.966434 -35.812733
-57.665562 20.966434 -35.721455
-57.471653 20.966434 -35.864613
-56.230503 19.966434 -36.721451
-55.471653 19.966434 -37.182175
-56.244236 20.966434 -36.721451
-55.471653 20.966434 -37.196823
-57.471653 19.417179 -35.721455
-56.471653 19.966434 -36.555069
-56.471653 20.966434 -36.570328
-57.671665 21.966434 -35.721455
-57.471653 21.966434 -35.859211
-57.761570 22.966434 -35.721455
-57.471653 22.966434 -35.894123
-56.082798 21.966434 -36.721451
-55.471653 21.966434 -37.057846
-55.907505 22.966434 -36.721451
-55.471653 22.966434 -36.932480
-56.471653 21.966434 -36.496140
-56.471653 22.966434 -36.439713
-58.848301 19.966434 -34.721455
-58.471653 19.966434 -35.027149
-58.979221 20.966434 -34.721455
-58.471653 20.966434 -35.114857
-59.095493 21.966434 -34.721455
-58.471653 21.966434 -35.166523
-58.471653 22.966434 -35.302479
-59.909275 14.966434 -29.721455
-59.471653 14.966434 -30.278919
-59.471653 14.654668 -29.721455
-58.104710 14.966434 -31.721453
-57.471653 14.966434 -32.231678
-57.471653 14.600835 -31.721453
-56.471653 14.877507 -32.721455
-55.471653 14.966434 -33.296345
-55.471653 14.463872 -32.721455
-56.085728 13.966435 -31.721453
-55.471653 13.966435 -32.112019
-55.471653 13.652226 -31.721453
-56.471653 14.141179 -31.721453
-56.660496 14.966434 -32.721455
-55.679417 12.966435 -30.721455
-55.471653 12.966435 -30.912495
-55.471653 12.806310 -30.721455
-56.693699 12.966435 -29.721455
-56.471653 12.966435 -29.943348
-56.471653 12.823552 -29.721455
-55.471653 11.918492 -29.721455
-59.079258 14.966434 -30.721455
-58.471653 14.966434 -31.369280
-58.471653 14.554357 -30.721455
-57.451389 13.966435 -30.721455
-58.471653 13.966435 -29.690693
-57.471653 13.401372 -29.721455
-56.471653 13.966435 -31.444536
-56.471653 13.483769 -30.721455
-55.662998 9.966435 -27.721455
-55.471653 9.966435 -28.054340
-55.471653 9.416082 -27.721455
-56.199680 10.966435 -27.721455
-55.471653 10.874150 -28.721455
-55.812778 7.966436 -26.721455
-55.471653 7.966436 -27.367481
-55.936619 8.966436 -26.721455
-55.471653 8.966436 -27.536060
-56.375767 7.966436 -25.721455
-56.471653 8.713476 -25.721455
-56.471653 8.966436 -25.823750
-56.269077 9.966435 -26.721455
-56.829990 10.966435 -26.721455
-56.471653 10.966435 -27.273670
-56.471653 10.383183 -26.721455
-56.870701 9.966435 -25.721455
-56.471653 9.966435 -26.403828
-57.471653 10.966435 -25.630695
-59.471653 14.114507 -28.721455
-60.610020 14.966434 -28.721455
-60.471653 14.966434 -28.922626
-59.933079 13.966435 -27.721455
-59.471653 13.966435 -28.422901
-59.471653 13.627507 -27.721455
-60.471653 14.371068 -27.721455
-61.213837 14.966434 -27.721455
-59.733311 12.966435 -25.721455
-59.471653 12.966435 -26.220570
-59.471653 12.777043 -25.721455
-61.727081 14.966434 -26.721455
-61.471649 14.966434 -27.232655
-61.471649 14.746434 -26.721455
-61.471649 14.353765 -25.721455
-62.155487 14.966434 -25.721455
-59.471653 13.176824 -26.721455
-60.471653 13.966435 -26.808857
-60.520664 13.966435 -26.721455
-60.471653 13.529912 -25.721455
-60.996552 13.966435 -25.721455
-57.666782 12.966435 -28.721455
-57.471653 12.966435 -28.925678
-57.471653 12.853703 -28.721455
-58.471653 12.966435 -27.735340
-57.471653 12.301671 -27.721455
-56.315342 11.966435 -28.721455
-56.471653 12.121251 -28.721455
-57.068943 11.966435 -27.721455
-56.471653 11.966435 -28.514851
-56.471653 11.345159 -27.721455
-59.238926 13.966435 -28.721455
-58.471653 13.443913 -28.721455
-58.481480 12.966435 -27.721455
-57.761448 11.966435 -26.721455
-57.471653 11.966435 -27.130421
-57.471653 11.723851 -26.721455
-58.471653 12.500310 -26.721455
-59.154697 12.966435 -26.721455
-58.471653 12.050145 -25.721455
-63.816925 20.966434 -29.721455
-63.471649 20.966434 -30.251911
-63.471649 19.947727 -29.721455
-63.471649 21.944401 -30.721455
-63.849091 22.966434 -30.721455
-63.471649 22.966434 -31.244738
-64.166840 21.966434 -29.721455
-64.471649 22.784367 -29.721455
-64.471649 22.966434 -29.822987
-63.713348 18.966434 -28.721455
-63.471649 18.966434 -29.130939
-63.471649 18.370579 -28.721455
-63.793549 17.966434 -27.721455
-63.471649 17.966434 -28.372761
-63.471649 17.409611 -27.721455
-64.235016 18.966434 -27.721455
-63.626068 16.966434 -26.721455
-63.471649 16.966434 -27.077381
-63.471649 16.755161 -26.721455
-63.982330 16.966434 -25.721455
-63.471649 16.315891 -25.721455
-64.248016 17.966434 -26.721455
-64.680511 18.966434 -26.721455
-64.471649 18.966434 -27.204548
-64.471649 18.423313 -26.721455
-64.610809 17.966434 -25.721455
-64.471649 17.966434 -26.165546
-64.471649 17.721622 -25.721455
-65.049042 18.966434 -25.721455
-64.079376 19.966434 -28.721455
-64.471649 21.129490 -28.721455
-64.581268 19.966434 -27.721455
-64.471649 19.966434 -27.975819
-64.471649 19.647404 -27.721455
-64.894623 20.966434 -27.721455
-65.602997 22.966434 -27.721455
-65.471649 22.966434 -28.027821
-65.471649 22.617741 -27.721455
-64.758087 21.966434 -28.721455
-64.471649 21.966434 -29.217426
-65.138336 22.966434 -28.721455
-65.230621 21.966434 -27.721455
-65.611420 20.966434 -25.721455
-65.471649 20.966434 -26.188404
-65.471649 20.428135 -25.721455
-65.005463 19.966434 -26.721455
-65.288910 20.966434 -26.721455
-65.357391 19.966434 -25.721455
-65.609039 21.966434 -26.721455
-65.471649 21.966434 -27.101704
-65.471649 21.555027 -26.721455
-65.982391 22.966434 -26.721455
-65.908112 21.966434 -25.721455
-66.269196 22.966434 -25.721455
-59.630894 16.966434 -32.721455
-59.471653 16.966434 -32.871571
-59.471653 16.802708 -32.721455
-60.471653 16.891666 -31.721453
-59.471653 15.935062 -31.721453
-61.704010 18.966434 -31.721453
-61.471649 18.966434 -32.015949
-61.471649 18.390751 -31.721453
-60.408360 17.966434 -32.721455
-60.852509 18.966434 -32.721455
-60.471653 18.966434 -33.112385
-60.471653 18.080601 -32.721455
-61.255280 17.966434 -31.721453
-62.007050 16.966434 -29.721455
-61.471649 16.966434 -30.489674
-61.471649 16.345219 -29.721455
-60.471653 15.966434 -30.573261
-59.471653 15.252171 -30.721455
-61.299469 16.966434 -30.721455
-61.085419 15.966434 -29.721455
-60.471653 15.422520 -29.721455
-61.994293 17.966434 -30.721455
-61.471649 17.966434 -31.436419
-61.471649 17.185612 -30.721455
-62.471649 19.069004 -30.721455
-62.664337 17.966434 -29.721455
-62.471649 17.966434 -30.026447
-62.471649 17.638767 -29.721455
-63.115143 18.966434 -29.721455
-58.414524 15.966434 -32.721455
-57.471653 15.966434 -33.357807
-57.471653 15.381718 -32.721455
-58.471653 15.205997 -31.721453
-62.036774 19.966434 -31.721453
-61.471649 19.966434 -32.390217
-62.357941 20.966434 -31.721453
-61.471649 21.096256 -32.721455
-61.158417 19.966434 -32.721455
-60.471653 19.966434 -33.385487
-60.471653 20.966434 -33.577839
-61.783722 21.966434 -32.721455
-61.471649 21.966434 -33.002094
-62.248932 22.966434 -32.721455
-61.471649 22.966434 -33.401783
-62.714081 21.966434 -31.721453
-62.471649 21.966434 -32.007862
-62.471649 21.317142 -31.721453
-63.120636 22.966434 -31.721453
-62.471649 22.966434 -32.493153
-62.784515 19.966434 -30.721455
-62.471649 19.966434 -31.141558
-63.127899 20.966434 -30.721455
-61.755219 15.966434 -28.721455
-61.471649 15.966434 -29.152454
-61.471649 15.701939 -28.721455
-62.632904 16.966434 -28.721455
-62.471649 16.966434 -28.987720
-62.471649 16.757969 -28.721455
-61.471649 15.184910 -27.721455
-62.308441 15.966434 -27.721455
-63.171295 16.966434 -27.721455
-62.471649 16.138279 -27.721455
-63.275177 17.966434 -28.721455
-62.766388 15.966434 -26.721455
-62.471649 15.966434 -27.368183
-62.471649 15.672489 -26.721455
-63.151642 15.966434 -25.721455
-62.471649 15.275150 -25.721455
-51.435276 7.966436 -39.721451
-51.639744 7.966436 -38.721451
-51.471653 7.966436 -39.503922
-51.471653 8.647985 -38.721451
-51.877415 7.966436 -37.721451
-51.605564 8.966436 -37.721451
-51.471653 8.966436 -38.366531
-51.471653 9.456640 -37.721451
-51.275242 7.966436 -40.721451
-51.068516 8.966436 -40.721451
-51.223911 8.966436 -39.721451
-50.822178 9.966435 -40.721451
-50.535984 10.966435 -40.721451
-50.471653 10.966435 -41.252121
-50.972630 9.966435 -39.721451
-50.671665 10.966435 -39.721451
-51.400364 8.966436 -38.721451
-51.139439 9.966435 -38.721451
-50.832188 10.966435 -38.721451
-51.322483 9.966435 -37.721451
-51.030552 10.966435 -37.721451
-50.471653 11.202886 -40.721451
-50.245640 11.966435 -40.721451
-49.941990 12.966435 -40.721451
-50.471653 11.638707 -39.721451
-50.366795 11.966435 -39.721451
-50.070347 12.966435 -39.721451
-49.646824 13.966435 -40.721451
-49.471653 14.564855 -40.721451
-49.801182 13.966435 -39.721451
-49.591160 14.966434 -39.721451
-49.471653 14.966434 -40.200089
-49.380222 14.966434 -40.721451
-50.531528 11.966435 -38.721451
-50.471653 11.966435 -39.023972
-50.471653 12.164678 -38.721451
-50.271275 12.966435 -38.721451
-50.771336 11.966435 -37.721451
-50.570042 12.966435 -37.721451
-50.471653 12.966435 -38.024155
-50.066502 13.966435 -38.721451
-49.955112 14.966434 -38.721451
-50.471653 13.847051 -37.721451
-50.466099 13.966435 -37.721451
-50.471653 14.648015 -37.721451
-50.471653 14.966434 -37.761246
-52.145298 7.966436 -36.721451
-51.833408 8.966436 -36.721451
-52.423862 7.966436 -35.721455
-52.093235 8.966436 -35.721455
-51.534580 9.966435 -36.721451
-51.471653 9.966435 -36.973526
-51.471653 10.165624 -36.721451
-51.801304 9.966435 -35.721455
-51.588718 10.966435 -35.721455
-51.471653 10.966435 -36.073994
-52.697605 7.966436 -34.721455
-52.471653 8.626013 -34.721455
-52.375401 8.966436 -34.721455
-52.983128 7.966436 -33.721455
-52.688206 8.966436 -33.721455
-52.471653 8.966436 -34.422413
-52.121922 9.966435 -34.721455
-51.984776 10.966435 -34.721455
-52.471653 9.966435 -33.776691
-52.448093 10.966435 -33.721455
-51.276524 10.966435 -36.721451
-51.471653 11.966435 -35.780170
-51.733372 13.966435 -35.721455
-51.471653 13.966435 -36.086536
-51.471653 12.966435 -35.825581
-52.154209 14.966434 -35.721455
-51.471653 14.966434 -36.464401
-52.001072 11.966435 -34.721455
-52.169041 12.966435 -34.721455
-52.589390 11.966435 -33.721455
-52.471653 11.966435 -33.917713
-52.471653 11.267034 -33.721455
-52.907139 12.966435 -33.721455
-52.471653 12.966435 -34.300739
-53.471653 13.954015 -33.721455
-54.639744 14.966434 -33.721455
-53.471653 14.966434 -34.535786
-52.471653 13.828679 -34.721455
-53.231968 14.966434 -34.721455
-52.471653 14.966434 -35.396473
-51.097202 11.966435 -36.721451
-51.006016 12.966435 -36.721451
-51.046726 13.966435 -36.721451
-51.252964 14.966434 -36.721451
-52.278049 17.966434 -37.721451
-51.471653 17.966434 -38.156723
-51.471653 17.339481 -37.721451
-53.471653 18.806644 -37.721451
-52.471653 18.966434 -38.222000
-52.471653 18.094822 -37.721451
-51.471653 18.967319 -38.721451
-49.471653 15.845493 -39.721451
-49.167210 15.966434 -40.721451
-49.038670 16.966434 -40.721451
-49.464146 15.966434 -39.721451
-49.471653 16.878788 -39.721451
-49.674290 17.966434 -39.721451
-49.471653 17.966434 -39.981125
-50.054722 18.966434 -39.721451
-49.471653 18.966434 -40.316574
-49.030186 17.966434 -40.721451
-49.165379 18.966434 -40.721451
-49.973362 15.966434 -38.721451
-50.184116 16.966434 -38.721451
-50.702610 15.966434 -37.721451
-50.471653 15.966434 -38.007278
-51.183323 16.966434 -37.721451
-50.471653 16.966434 -38.396408
-50.658054 17.966434 -38.721451
-50.471653 17.966434 -38.876450
-50.471653 17.684666 -38.721451
-50.471653 18.966434 -39.367752
-53.661167 18.966434 -37.721451
-54.440403 19.966434 -37.721451
-53.471653 19.966434 -38.152328
-54.471653 20.134708 -37.721451
-54.471653 20.966434 -37.750107
-53.471653 20.966434 -38.265976
-52.285557 19.966434 -38.721451
-51.471653 19.966434 -39.148392
-52.471653 20.340488 -38.721451
-52.471653 20.966434 -38.806473
-51.471653 20.966434 -39.395828
-52.471653 19.966434 -38.625290
-54.471653 21.284977 -37.721451
-54.231113 21.966434 -37.721451
-53.471653 21.966434 -38.137833
-53.911228 22.966434 -37.721451
-53.471653 22.966434 -37.965897
-51.471653 21.966434 -39.426193
-52.471653 21.966434 -38.748367
-52.471653 22.178501 -38.721451
-52.344944 22.966434 -38.721451
-51.471653 22.966434 -39.384811
-49.698093 20.966434 -40.721451
-49.471653 20.966434 -40.938278
-49.471653 20.178654 -40.721451
-50.471653 19.831638 -39.721451
-49.411961 19.966434 -40.721451
-50.951206 20.966434 -39.721451
-50.471653 20.966434 -40.062393
-49.871006 21.966434 -40.721451
-49.471653 21.966434 -41.126389
-49.994236 22.966434 -40.721451
-49.471653 22.966434 -41.327896
-51.055698 21.966434 -39.721451
-50.471653 21.966434 -40.180099
-51.056126 22.966434 -39.721451
-50.471653 22.966434 -40.241043
-54.824680 16.966434 -35.721455
-54.471653 16.966434 -35.882557
-54.471653 16.795536 -35.721455
-53.471653 16.966434 -36.332081
-53.471653 16.294315 -35.721455
-51.708836 15.966434 -36.721451
-51.471653 15.966434 -36.924698
-51.471653 15.581059 -36.721451
-52.471653 16.824680 -36.721451
-51.471653 16.966434 -37.495071
-52.988316 15.966434 -35.721455
-52.471653 15.966434 -36.083515
-52.471653 15.471073 -35.721455
-52.665684 16.966434 -36.721451
-54.556492 17.966434 -36.721451
-53.471653 17.966434 -37.182144
-53.471653 17.410679 -36.721451
-54.471653 18.966434 -37.373459
-54.788242 15.966434 -34.721455
-54.471653 15.966434 -34.889698
-54.471653 15.809086 -34.721455
-53.471653 15.966434 -35.423756
-53.471653 15.203617 -34.721455
-54.471653 21.966434 -37.593185
-54.471653 22.966434 -37.435196
-53.471653 7.384039 -32.721455
-53.613926 7.966436 -31.721453
-53.471653 7.966436 -32.135548
-53.471653 8.537848 -31.721453
-53.284824 7.966436 -32.721455
-53.039036 8.966436 -32.721455
-53.410923 8.966436 -31.721453
-52.914463 9.966435 -32.721455
-52.976719 10.966435 -32.721455
-53.373508 9.966435 -31.721453
-53.471653 10.682134 -31.721453
-53.471653 10.966435 -31.845751
-53.977268 7.966436 -30.721455
-53.837681 8.966436 -30.721455
-54.471653 7.520544 -29.721455
-54.380894 7.966436 -29.721455
-54.317539 8.966436 -29.721455
-53.888889 9.966435 -30.721455
-53.471653 9.966435 -31.510454
-54.180698 10.966435 -30.721455
-54.455601 9.966435 -29.721455
-54.852207 10.966435 -29.721455
-54.471653 10.966435 -30.294575
-54.471653 10.022649 -29.721455
-53.747044 12.966435 -32.721455
-53.471653 12.966435 -33.023792
-53.471653 12.508000 -32.721455
-53.970005 11.966435 -31.721453
-53.471653 11.966435 -32.394764
-54.676853 12.966435 -31.721453
-54.471653 12.966435 -31.929003
-54.471653 12.733617 -31.721453
-53.248020 11.966435 -32.721455
-54.471653 13.839574 -32.721455
-54.628025 13.966435 -32.721455
-54.739536 11.966435 -30.721455
-54.471653 11.966435 -31.050800
-54.471653 11.575933 -30.721455
-54.837559 7.966436 -28.721455
-54.471653 7.966436 -29.493641
-54.843113 8.966436 -28.721455
-54.471653 8.966436 -29.394276
-55.311375 7.966436 -27.721455
-55.379551 8.966436 -27.721455
-55.068333 9.966435 -28.721455
-67.991486 30.966433 -33.721455
-67.471649 30.966433 -34.304585
-67.471649 29.966433 -33.832172
-64.126373 28.966433 -35.721455
-63.471649 28.966433 -36.190235
-63.471649 28.566195 -35.721455
-65.910370 30.966433 -35.721455
-65.471649 30.966433 -36.073078
-65.471649 30.290956 -35.721455
-63.895782 29.966433 -36.721451
-63.471649 29.966433 -36.997940
-63.471649 29.534609 -36.721451
-64.471649 30.727358 -36.721451
-64.471649 30.966433 -36.834763
-63.471649 30.966433 -37.522781
-65.206329 29.966433 -35.721455
-64.471649 29.966433 -36.285236
-64.471649 29.219240 -35.721455
-66.745880 28.966433 -33.721455
-66.471649 28.966433 -33.960712
-66.471649 28.720980 -33.721455
-65.471649 28.224215 -33.721455
-65.472931 28.966433 -34.721455
-64.471649 28.966433 -35.452656
-64.471649 28.386782 -34.721455
-63.504364 27.966433 -34.721455
-64.775726 27.966433 -33.721455
-64.471649 27.966433 -33.963886
-64.471649 27.848085 -33.721455
-63.471649 27.090975 -33.721455
-66.471649 29.960909 -34.721455
-65.471649 29.966433 -35.514912
-67.033844 30.966433 -34.721455
-66.471649 30.966433 -35.237659
-67.471649 29.792269 -33.721455
-55.807529 26.966433 -38.721451
-55.471653 26.966433 -38.990738
-55.471653 26.813601 -38.721451
-57.049046 26.966433 -37.721451
-56.471653 26.966433 -38.172318
-56.471653 26.715639 -37.721451
-55.471653 26.224611 -37.721451
-59.791904 30.966433 -39.721451
-59.471653 30.966433 -39.921310
-59.471653 30.709230 -39.721451
-61.343719 28.966433 -37.721451
-60.471653 28.966433 -38.255661
-60.471653 28.353090 -37.721451
-59.614719 27.966433 -37.721451
-59.638462 28.966433 -38.721451
-59.471653 28.826876 -38.721451
-59.471653 27.966433 -37.823349
-62.370636 29.966433 -37.721451
-61.471649 29.966433 -38.243607
-61.471649 29.066805 -37.721451
-63.153656 30.966433 -37.721451
-62.471649 30.966433 -38.134750
-62.471649 30.087954 -37.721451
-61.471649 30.981295 -38.721451
-60.471653 29.780214 -38.721451
-60.471653 29.966433 -38.807632
-59.471653 29.966433 -39.319565
-60.471653 30.966433 -39.324570
-56.266575 27.966433 -39.721451
-55.471653 27.966433 -40.125626
-55.471653 27.457338 -39.721451
-57.463779 28.966433 -39.721451
-56.471653 28.966433 -40.214584
-56.471653 28.118563 -39.721451
-55.570164 28.966433 -40.721451
-58.211521 30.966433 -40.721451
-57.471653 30.966433 -41.286453
-57.471653 30.483980 -40.721451
-58.612827 29.966433 -39.721451
-57.471653 29.966433 -40.318069
-57.471653 28.972933 -39.721451
-58.471653 30.966433 -40.547409
-56.749729 29.966433 -40.721451
-56.471653 29.966433 -40.906784
-56.471653 29.737734 -40.721451
-58.070469 27.966433 -38.721451
-57.471653 27.966433 -39.022018
-57.471653 27.693544 -38.721451
-58.471653 28.966433 -39.251572
-58.471653 28.170748 -38.721451
-58.471653 27.966433 -38.473373
-58.471653 27.531801 -37.721451
-57.471653 27.137453 -37.721451
-56.471653 27.261995 -38.721451
-56.471653 27.966433 -39.589981
-59.838108 25.966433 -35.721455
-59.471653 25.966433 -35.909229
-59.471653 25.590578 -35.721455
-60.789524 26.966433 -35.721455
-60.471653 26.966433 -35.943958
-60.471653 26.646212 -35.721455
-59.471653 26.966433 -36.493881
-61.655426 23.966433 -33.721455
-61.471649 23.966433 -33.850605
-61.471649 23.697603 -33.721455
-62.255219 24.966433 -33.721455
-61.471649 24.966433 -34.310413
-60.071445 23.966433 -34.721455
-59.471653 23.966433 -35.049519
-60.807098 24.966433 -34.721455
-60.471653 24.966433 -34.926472
-60.471653 24.502657 -34.721455
-59.471653 24.966433 -35.469318
-60.471653 23.966433 -34.483082
-61.471649 25.933229 -34.721455
-62.194122 26.966433 -34.721455
-61.471649 26.966433 -35.261250
-62.746185 25.966433 -33.721455
-62.471649 25.966433 -33.970570
-62.471649 25.438204 -33.721455
-63.370209 26.966433 -33.721455
-62.471649 26.966433 -34.499134
-60.471653 25.966433 -35.380634
-58.135471 23.966433 -35.721455
-57.471653 23.966433 -36.032703
-58.914768 24.966433 -35.721455
-58.471653 24.966433 -35.919666
-58.471653 24.445589 -35.721455
-57.471653 24.966433 -36.299030
-55.818638 23.966433 -36.721451
-55.471653 23.966433 -36.868851
-56.235752 24.966433 -36.721451
-55.471653 24.966433 -37.021439
-56.471653 23.966433 -36.453781
-56.471653 24.966433 -36.636765
-58.957371 26.966433 -36.721451
-58.471653 26.966433 -36.978561
-58.471653 26.667818 -36.721451
-57.471653 26.966433 -37.500443
-57.471653 26.034517 -36.721451
-58.471653 25.966433 -36.334797
-56.471653 25.966433 -37.078751
-56.471653 25.255709 -36.721451
-55.471653 25.966433 -37.506973
-58.471653 23.966433 -35.566761
-62.746063 28.966433 -36.721451
-62.471649 28.966433 -36.909744
-62.471649 28.778566 -36.721451
-61.471649 28.234102 -36.721451
-62.187408 27.966433 -35.721455
-61.471649 27.966433 -36.306080
-61.471649 27.548128 -35.721455
-62.471649 28.115786 -35.721455
-60.918121 27.966433 -36.721451
-60.471653 27.966433 -37.071213
-60.471653 27.756624 -36.721451
-59.471653 27.252535 -36.721451
-62.471649 27.966433 -35.503742
-62.471649 27.276278 -34.721455
-64.066620 34.966431 -40.721451
-63.471649 34.439850 -40.721451
-63.763214 33.966431 -39.721451
-63.471649 33.966431 -40.062485
-63.471649 33.697815 -39.721451
-64.783783 34.966431 -39.721451
-64.471649 34.966431 -40.152328
-64.471649 34.644196 -39.721451
-63.831085 31.966433 -37.721451
-63.471649 31.966433 -37.983475
-63.471649 31.454805 -37.721451
-64.615387 32.966431 -37.721451
-64.471649 32.966431 -37.865250
-64.471649 32.788757 -37.721451
-63.550995 32.966431 -38.721451
-66.319916 34.966431 -37.721451
-65.471649 34.881470 -38.721451
-65.471649 33.912933 -37.721451
-64.635223 33.966431 -38.721451
-64.471649 33.966431 -38.906693
-64.471649 33.792328 -38.721451
-63.471649 32.966431 -38.794327
-67.731415 37.966431 -40.721451
-67.471649 37.766083 -40.721451
-68.471649 38.532166 -40.721451
-69.074371 38.966431 -40.721451
-67.471649 37.454346 -39.721451
-68.087006 37.966431 -39.721451
-68.471649 38.283356 -39.721451
-69.471649 39.061462 -39.721451
-68.053253 36.966431 -37.721451
-67.471649 36.966431 -38.663620
-67.471649 36.328461 -37.721451
-69.703400 38.966431 -38.721451
-69.471649 38.966431 -39.324387
-69.471649 38.785248 -38.721451
-69.471649 38.368500 -37.721451
-70.100739 38.966431 -37.721451
-68.471649 37.966431 -38.832687
-67.471649 37.001556 -38.721451
-68.526886 37.966431 -38.721451
-68.471649 37.403351 -37.721451
-69.047333 37.966431 -37.721451
-65.471649 36.206879 -40.721451
-66.471649 36.966431 -40.618881
-65.805267 35.966431 -39.721451
-65.471649 35.966431 -40.258347
-65.471649 35.647125 -39.721451
-66.895905 36.966431 -39.721451
-66.471649 36.589233 -39.721451
-64.471649 35.329346 -40.721451
-65.188995 35.966431 -40.721451
-66.471649 35.966431 -38.693924
-67.151031 35.966431 -37.721451
-66.471649 35.158600 -37.721451
-67.822357 34.966431 -35.721455
-67.471649 34.966431 -36.214191
-67.471649 34.426361 -35.721455
-68.137238 31.966433 -33.721455
-67.471649 31.966433 -34.532917
-68.240265 32.966431 -33.721455
-67.471649 32.930908 -34.721455
-67.890045 33.966431 -34.721455
-67.471649 33.966431 -35.294361
-68.471649 34.913544 -34.721455
-68.471649 33.789276 -33.721455
-68.471649 33.966431 -33.848438
-69.104767 34.966431 -33.721455
-65.673065 32.966431 -36.721451
-65.471649 32.966431 -36.916672
-65.471649 32.593140 -36.721451
-66.316498 31.966433 -35.721455
-65.471649 31.966433 -36.464828
-66.639496 32.966431 -35.721455
-66.471649 32.966431 -35.913227
-66.471649 32.459808 -35.721455
-65.147675 31.966433 -36.721451
-64.471649 31.966433 -37.248367
-66.471649 33.966431 -36.590378
-67.086334 34.966431 -36.721451
-66.471649 34.966431 -37.512527
-67.158844 33.966431 -35.721455
-67.294159 31.966433 -34.721455
-66.471649 31.966433 -35.572865
-67.845917 35.966431 -36.721451
-67.471649 35.966431 -37.246872
-67.471649 35.492584 -36.721451
-68.675507 36.966431 -36.721451
-68.471649 36.966431 -37.030228
-68.471649 36.725128 -36.721451
-68.471649 35.898804 -35.721455
-69.285919 36.966431 -35.721455
-70.471649 38.901459 -36.721451
-69.471649 37.966431 -36.933609
-69.592072 37.966431 -36.721451
-70.133453 37.966431 -35.721455
-69.471649 37.201019 -35.721455
-71.012421 38.966431 -35.721455
-70.471649 38.342010 -35.721455
-69.863556 36.966431 -34.721455
-69.471649 36.966431 -35.398151
-69.471649 36.427185 -34.721455
-69.717133 35.966431 -33.721455
-69.471649 35.966431 -34.181599
-69.471649 35.572662 -33.721455
-70.471649 37.084991 -33.721455
-69.154205 35.966431 -34.721455
-70.647858 37.966431 -34.721455
-70.471649 37.966431 -35.058125
-70.471649 37.752869 -34.721455
-71.135590 37.966431 -33.721455
-61.663483 32.966431 -40.721451
-61.471649 32.966431 -40.925949
-61.471649 32.828491 -40.721451
-61.471649 32.243805 -39.721451
-62.471649 32.966431 -39.817184
-59.958652 31.966433 -40.721451
-59.471653 31.966433 -41.185684
-59.471653 31.711794 -40.721451
-60.471653 32.233765 -40.721451
-61.050140 31.966433 -39.721451
-60.471653 31.966433 -40.260818
-60.471653 31.546480 -39.721451
-62.910126 33.966431 -40.721451
-62.471649 33.966431 -41.265945
-62.471649 33.585175 -40.721451
-62.559479 32.966431 -39.721451
-62.369904 31.966433 -38.721451
-61.471649 31.966433 -39.390549
-62.471649 32.057404 -38.721451
-58.471653 31.136507 -40.721451
-63.983490 24.966433 -31.721453
-63.471649 24.966433 -32.417011
-63.471649 23.801973 -31.721453
-63.682220 25.966433 -32.721455
-63.471649 25.966433 -32.967030
-63.471649 25.561007 -32.721455
-64.341827 26.966433 -32.721455
-64.471649 25.966433 -31.712633
-65.309845 26.966433 -31.721453
-64.471649 26.966433 -32.572163
-64.254242 23.966433 -30.721455
-64.715424 24.966433 -30.721455
-64.471649 24.966433 -31.027760
-64.471649 24.468019 -30.721455
-64.947540 23.966433 -29.721455
-64.471649 23.966433 -30.420216
-65.471649 24.966433 -29.614521
-66.298004 26.966433 -30.721455
-65.471649 26.966433 -31.569170
-65.471649 26.177004 -30.721455
-66.013885 25.966433 -29.721455
-65.471649 25.966433 -30.515369
-66.959320 26.966433 -29.721455
-66.471649 26.966433 -30.461353
-66.471649 26.532717 -29.721455
-65.311798 25.966433 -30.721455
-67.797211 28.966433 -32.721455
-67.471649 28.966433 -33.052784
-67.471649 28.630159 -32.721455
-68.634308 28.966433 -31.721453
-68.471649 28.966433 -31.928484
-68.471649 28.756838 -31.721453
-67.471649 28.009462 -31.721453
-68.459564 29.966433 -32.721455
-68.756805 30.966433 -32.721455
-68.471649 30.966433 -33.114674
-68.471649 29.991915 -32.721455
-69.164948 29.966433 -31.721453
-69.370575 30.966433 -31.721453
-69.849640 28.966433 -29.721455
-69.471649 28.966433 -30.486622
-69.471649 28.416323 -29.721455
-68.195221 27.966433 -30.721455
-67.471649 27.642763 -30.721455
-69.324066 28.966433 -30.721455
-68.471649 28.111818 -30.721455
-68.856903 27.966433 -29.721455
-68.471649 27.966433 -30.355671
-68.471649 27.747042 -29.721455
-67.471649 27.309481 -29.721455
-69.719574 29.966433 -30.721455
-69.471649 29.966433 -31.203997
-69.471649 29.212984 -30.721455
-69.837372 30.966433 -30.721455
-69.471649 30.966433 -31.528734
-70.159698 29.966433 -29.721455
-70.208649 30.966433 -29.721455
-66.190521 27.966433 -32.721455
-65.471649 27.966433 -33.158253
-65.471649 27.768068 -32.721455
-66.471649 28.046785 -32.721455
-66.471649 27.599398 -31.721453
-65.471649 27.101412 -31.721453
-64.471649 27.118685 -32.721455
-66.471649 27.100527 -30.721455
-67.471649 26.496065 -27.721455
-68.071625 26.966433 -27.721455
-67.483795 26.966433 -28.721455
-67.471649 26.966433 -28.740620
-68.471649 26.966433 -26.887928
-67.471649 25.960360 -26.721455
-67.882050 25.966433 -25.721455
-67.471649 25.454042 -25.721455
-68.471649 26.619051 -25.721455
-68.967316 26.966433 -25.721455
-68.556427 26.966433 -26.721455
-65.979156 24.966433 -28.721455
-65.471649 23.828463 -28.721455
-66.000031 23.966433 -27.721455
-66.471649 24.966433 -27.643116
-66.471649 25.884462 -28.721455
-67.057465 25.966433 -27.721455
-66.376373 23.966433 -26.721455
-66.854156 24.966433 -26.721455
-66.471649 24.188753 -26.721455
-66.675690 23.966433 -25.721455
-66.471649 23.966433 -26.438648
-66.471649 23.516787 -25.721455
-67.183990 24.966433 -25.721455
-70.258514 28.966433 -28.721455
-69.471649 27.996920 -28.721455
-69.814240 27.966433 -27.721455
-69.471649 27.966433 -28.624043
-69.471649 27.690523 -27.721455
-70.530853 28.966433 -27.721455
-70.471649 28.966433 -28.005146
-70.471649 28.827883 -27.721455
-68.471649 27.486422 -28.721455
-68.471649 27.225008 -27.721455
-70.471649 29.772341 -28.721455
-70.471649 29.966433 -28.779499
-70.471649 30.966433 -28.781544
-70.715912 29.966433 -27.721455
-70.682709 30.966433 -27.721455
-69.471649 27.447939 -26.721455
-70.076385 27.966433 -26.721455
-70.696381 28.966433 -26.721455
-70.471649 28.478518 -26.721455
-69.471649 27.265047 -25.721455
-70.253937 27.966433 -25.721455
-70.811310 28.966433 -25.721455
-70.471649 28.245516 -25.721455
-70.870453 29.966433 -26.721455
-70.820160 30.966433 -26.721455
-70.967072 29.966433 -25.721455
-70.906036 30.966433 -25.721455
-62.755157 23.966433 -32.721455
-62.471649 23.966433 -33.022694
-62.471649 23.417818 -32.721455
-63.225372 24.966433 -32.721455
-62.471649 24.966433 -33.523487
-68.835052 31.966433 -32.721455
-68.471649 31.966433 -33.256794
-68.884064 32.966431 -32.721455
-68.471649 32.966431 -33.365284
-69.393646 31.966433 -31.721453
-69.413422 32.966431 -31.721453
-69.644989 34.966431 -32.721455
-69.471649 34.966431 -33.052296
-69.471649 34.639282 -32.721455
-69.644562 33.966431 -31.721453
-69.471649 33.966431 -32.082081
-69.471649 33.337799 -31.721453
-70.128571 34.966431 -31.721453
-69.135040 33.966431 -32.721455
-69.820709 31.966433 -30.721455
