79.622734 5.909555 -27.541050
79.906151 4.909555 -27.131580
80.217949 4.909555 -26.541050
79.906151 5.909555 -27.057163
80.170525 5.909555 -26.541050
80.667503 -1.090445 -25.541050
80.706535 -0.090445 -25.541050
80.906151 -1.090445 -25.014210
80.906151 -0.090445 -25.111469
81.110039 -1.090445 -24.541050
81.155968 -0.090445 -24.541050
80.745201 0.909555 -25.541050
80.763969 1.909555 -25.541050
80.906151 0.909555 -25.197224
80.906151 1.909555 -25.237431
81.195854 0.909555 -24.541050
81.214867 1.909555 -24.541050
81.509270 -1.090445 -23.541050
81.562553 -0.090445 -23.541050
81.906151 -0.363028 -22.541050
81.920219 -0.090445 -22.541050
81.600792 0.909555 -23.541050
81.617485 1.909555 -23.541050
81.958458 0.909555 -22.541050
81.906151 1.909555 -22.753452
81.972435 1.909555 -22.541050
80.760460 2.909555 -25.541050
80.748711 3.909555 -25.541050
80.906151 2.909555 -25.227802
80.906151 3.909555 -25.196522
81.206596 2.909555 -24.541050
81.186485 3.909555 -24.541050
80.716362 4.909555 -25.541050
80.666588 5.909555 -25.541050
80.906151 4.909555 -25.117908
80.906151 5.909555 -25.001514
81.149040 4.909555 -24.541050
81.098595 5.909555 -24.541050
81.608025 2.909555 -23.541050
81.584068 3.909555 -23.541050
81.964256 2.909555 -22.541050
81.941124 3.909555 -22.541050
81.544090 4.909555 -23.541050
81.490898 5.909555 -23.541050
81.906151 4.772532 -22.541050
81.844383 5.909555 -22.541050
81.447350 -9.090446 -21.541048
81.534752 -8.090446 -21.541048
81.630699 -9.090446 -20.541048
81.748344 -8.090446 -20.541048
81.623650 -7.090446 -21.541048
81.716515 -6.090446 -21.541048
81.853447 -7.090446 -20.541048
81.906151 -6.612556 -20.541048
81.906151 -6.090446 -20.777269
81.959984 -6.090446 -20.541048
81.824974 -9.090446 -19.541048
81.906151 -8.533531 -19.541048
81.906151 -8.090446 -19.792376
81.963432 -8.090446 -19.541048
81.906151 -9.711433 -18.541048
81.906151 -9.090446 -19.135012
82.006645 -9.090446 -18.541048
82.159691 -8.090446 -18.541048
81.906151 -7.090446 -20.293245
82.079674 -7.090446 -19.541048
82.194298 -6.090446 -19.541048
82.284111 -7.090446 -18.541048
82.400566 -6.090446 -18.541048
81.813194 -5.090446 -21.541048
81.906151 -5.090446 -21.201616
82.071678 -5.090446 -20.541048
81.906151 -4.090446 -21.508593
82.173943 -4.090446 -20.541048
81.906151 -3.090446 -21.774736
81.981010 -3.090446 -21.541048
81.906151 -2.090446 -22.072420
82.076134 -2.090446 -21.541048
82.270866 -3.090446 -20.541048
82.366203 -2.090446 -20.541048
82.309654 -5.090446 -19.541048
82.418907 -4.090446 -19.541048
82.511192 -5.090446 -18.541048
82.621544 -4.090446 -18.541048
82.522789 -3.090446 -19.541048
82.617088 -2.090446 -19.541048
82.729179 -3.090446 -18.541048
82.825829 -2.090446 -18.541048
82.167107 -9.090446 -17.541048
82.326561 -8.090446 -17.541048
82.303185 -9.090446 -16.541048
82.468895 -8.090446 -16.541048
82.458244 -7.090446 -17.541048
82.576408 -6.090446 -17.541048
82.608727 -7.090446 -16.541048
82.732903 -6.090446 -16.541048
82.411766 -9.090446 -15.541048
82.587151 -8.090446 -15.541048
82.500114 -9.090446 -14.541048
82.679253 -8.090446 -14.541048
82.738579 -7.090446 -15.541048
82.873833 -6.090446 -15.541048
82.839592 -7.090446 -14.541048
82.906151 -6.674766 -14.541048
82.906151 -6.090446 -15.303988
82.988396 -6.090446 -14.541048
82.685143 -5.090446 -17.541048
82.800407 -4.090446 -17.541048
82.847588 -5.090446 -16.541048
82.906151 -4.621498 -16.541048
82.906151 -4.090446 -16.943422
82.906151 -3.153861 -17.541048
82.906151 -2.090446 -18.103365
82.906151 -5.818702 -15.541048
82.906151 -5.090446 -16.145082
82.969322 -4.090446 -16.541048
83.014488 -2.090446 -17.541048
83.080376 -3.090446 -16.541048
83.174156 -2.090446 -16.541048
82.995995 -5.090446 -15.541048
83.108665 -4.090446 -15.541048
83.107292 -5.090446 -14.541048
83.209282 -4.090446 -14.541048
83.208946 -3.090446 -15.541048
83.296257 -2.090446 -15.541048
83.303001 -3.090446 -14.541048
83.387016 -2.090446 -14.541048
81.906151 -1.090445 -22.373522
82.172478 -1.090445 -21.541048
82.244286 -0.090445 -21.541048
82.454247 -1.090445 -20.541048
82.519615 -0.090445 -20.541048
82.284996 0.909555 -21.541048
82.295616 1.909555 -21.541048
82.561394 0.909555 -20.541048
82.573570 1.909555 -20.541048
82.697960 -1.090445 -19.541048
82.756615 -0.090445 -19.541048
82.906151 -1.158957 -18.541048
82.906151 -0.090445 -18.885973
82.798820 0.909555 -19.541048
82.817833 1.909555 -19.541048
82.906151 0.909555 -19.092791
82.906151 1.909555 -19.192934
82.978355 -0.090445 -18.541048
83.027245 0.909555 -18.541048
83.056633 1.909555 -18.541048
82.286430 2.909555 -21.541048
82.268242 3.909555 -21.541048
82.565666 2.909555 -20.541048
82.552361 3.909555 -20.541048
82.230736 4.909555 -21.541048
81.906151 5.909555 -22.337465
82.174919 5.909555 -21.541048
82.520836 4.909555 -20.541048
82.473747 5.909555 -20.541048
82.817253 2.909555 -19.541048
82.807182 3.909555 -19.541048
82.906151 2.909555 -19.201021
82.906151 3.909555 -19.158327
82.774101 4.909555 -19.541048
82.728874 5.909555 -19.541048
82.906151 4.909555 -19.011919
82.906151 5.909555 -18.790239
83.063988 2.909555 -18.541048
83.053032 3.909555 -18.541048
83.015526 4.909555 -18.541048
82.960716 5.909555 -18.541048
83.106071 -1.090445 -17.541048
83.177788 -0.090445 -17.541048
83.262016 -1.090445 -16.541048
83.335869 -0.090445 -16.541048
83.231041 0.909555 -17.541048
83.264641 1.909555 -17.541048
83.393120 0.909555 -16.541048
83.429710 1.909555 -16.541048
83.379173 -1.090445 -15.541048
83.451439 -0.090445 -15.541048
83.469139 -1.090445 -14.541048
83.538902 -0.090445 -14.541048
83.508659 0.909555 -15.541048
83.546379 1.909555 -15.541048
83.591240 0.909555 -14.541048
83.626152 1.909555 -14.541048
83.274529 2.909555 -17.541048
83.264336 3.909555 -17.541048
83.441582 2.909555 -16.541048
83.430534 3.909555 -16.541048
83.231712 4.909555 -17.541048
83.174950 5.909555 -17.541048
83.395836 4.909555 -16.541048
83.339134 5.909555 -16.541048
83.561852 2.909555 -15.541048
83.553947 3.909555 -15.541048
83.640129 2.909555 -14.541048
83.637444 3.909555 -14.541048
83.516747 4.909555 -15.541048
83.459190 5.909555 -15.541048
83.607140 4.909555 -14.541048
83.552635 5.909555 -14.541048
79.007408 6.909555 -28.541050
78.946068 7.909555 -28.541050
79.569511 6.909555 -27.541050
79.491386 7.909555 -27.541050
79.906151 6.909555 -26.945484
80.105309 6.909555 -26.541050
79.906151 7.909555 -26.774097
80.016411 7.909555 -26.541050
79.386589 8.909555 -27.541050
79.267906 9.909555 -27.541050
79.906151 8.895960 -26.541050
79.772270 9.909555 -26.541050
79.136925 10.909556 -27.541050
78.984581 11.909556 -27.541050
79.617912 10.909556 -26.541050
79.435326 11.909556 -26.541050
79.229301 12.909556 -26.541050
78.984489 13.909556 -26.541050
80.598961 6.909555 -25.541050
80.508354 7.909555 -25.541050
80.906151 6.909555 -24.839634
81.029808 6.909555 -24.541050
80.940697 7.909555 -24.541050
80.395317 8.909555 -25.541050
79.906151 9.909555 -26.248188
80.252007 9.909555 -25.541050
80.906151 8.264383 -24.541050
80.696861 9.909555 -24.541050
81.422050 6.909555 -23.541050
81.338158 7.909555 -23.541050
81.779442 6.909555 -22.541050
81.701958 7.909555 -22.541050
80.906151 8.909555 -24.367970
80.906151 9.909555 -24.026646
81.235863 8.909555 -23.541050
81.099754 9.909555 -23.541050
81.600883 8.909555 -22.541050
81.465233 9.909555 -22.541050
79.906151 10.909556 -25.898075
80.076134 10.909556 -25.541050
79.906151 11.741664 -25.541050
80.511284 10.909556 -24.541050
80.287956 11.909556 -24.541050
79.640373 12.909556 -25.541050
79.368523 13.909556 -25.541050
79.906151 12.909556 -24.891499
80.035759 12.909556 -24.541050
79.749992 13.909556 -24.541050
79.906151 13.348247 -24.541050
80.686577 11.909556 -23.541050
80.906151 11.909556 -22.965290
80.912315 10.909556 -23.541050
81.285271 10.909556 -22.541050
81.056206 11.909556 -22.541050
80.421288 12.909556 -23.541050
79.906151 13.909556 -24.100788
80.116417 13.909556 -23.541050
80.780693 12.909556 -22.541050
80.906151 12.468760 -22.541050
80.470421 13.909556 -22.541050
79.073875 14.909556 -25.541050
79.428307 14.909556 -24.541050
79.067589 15.909556 -24.541050
79.777153 14.909556 -23.541050
79.906151 14.572627 -23.541050
79.384697 15.909556 -23.541050
79.906151 14.909556 -23.184040
80.108635 14.909556 -22.541050
79.701225 15.909556 -22.541050
79.906151 15.399379 -22.541050
79.257256 16.909557 -22.541050
81.906151 6.909555 -22.130541
82.107658 6.909555 -21.541048
81.906151 7.909555 -21.894945
82.027763 7.909555 -21.541048
82.412315 6.909555 -20.541048
82.331017 7.909555 -20.541048
81.927452 8.909555 -21.541048
81.795372 9.909555 -21.541048
82.230919 8.909555 -20.541048
81.906151 9.909555 -21.192461
82.092857 9.909555 -20.541048
82.669853 6.909555 -19.541048
82.590385 7.909555 -19.541048
82.906151 6.706095 -18.541048
82.809502 7.909555 -18.541048
82.493553 8.909555 -19.541048
82.358696 9.909555 -19.541048
82.714287 8.909555 -18.541048
82.582237 9.909555 -18.541048
81.619316 10.909556 -21.541048
81.394402 11.909556 -21.541048
81.911095 10.909556 -20.541048
81.694664 11.909556 -20.541048
80.906151 12.909556 -22.152071
80.793633 13.909556 -21.541048
80.906151 13.552211 -21.541048
80.906151 13.909556 -21.174486
81.115868 12.909556 -21.541048
81.419182 12.909556 -20.541048
81.094383 13.909556 -20.541048
82.180779 10.909556 -19.541048
81.956871 11.909556 -19.541048
82.415550 10.909556 -18.541048
82.195915 11.909556 -18.541048
81.683739 12.909556 -19.541048
81.906151 12.117488 -19.541048
81.364799 13.909556 -19.541048
81.906151 12.909556 -18.580538
81.610435 13.909556 -18.541048
82.906151 6.909555 -18.458193
82.906151 7.909555 -18.032717
82.906151 8.813898 -17.541048
82.761406 9.909555 -17.541048
83.094872 6.909555 -17.541048
83.003044 7.909555 -17.541048
83.257957 6.909555 -16.541048
83.161125 7.909555 -16.541048
83.050621 8.909555 -16.541048
82.908165 9.909555 -16.541048
83.381920 6.909555 -15.541048
83.281822 7.909555 -15.541048
83.478539 6.909555 -14.541048
83.372551 7.909555 -14.541048
83.168846 8.909555 -15.541048
83.030937 9.909555 -15.541048
83.251366 8.909555 -14.541048
83.114769 9.909555 -14.541048
82.603783 10.909556 -17.541048
82.395470 11.909556 -17.541048
82.749474 10.909556 -16.541048
82.549767 11.909556 -16.541048
82.125053 12.909556 -17.541048
81.825859 13.909556 -17.541048
81.906151 13.622203 -17.541048
82.300682 12.909556 -16.541048
81.906151 13.909556 -17.135088
82.009239 13.909556 -16.541048
82.860985 10.909556 -15.541048
82.906151 10.665797 -15.541048
82.666527 11.909556 -15.541048
82.906151 10.909556 -15.070406
82.756706 11.909556 -14.541048
82.906151 11.120280 -14.541048
82.434929 12.909556 -15.541048
82.156883 13.909556 -15.541048
82.535942 12.909556 -14.541048
82.274651 13.909556 -14.541048
82.948601 10.909556 -14.541048
80.431328 14.909556 -21.541048
79.906151 15.909556 -21.857439
80.012230 15.909556 -21.541048
80.729393 14.909556 -20.541048
80.906151 14.451640 -20.541048
80.319389 15.909556 -20.541048
79.563072 16.909557 -21.541048
79.906151 16.166775 -21.541048
79.078056 17.909557 -21.541048
79.906151 16.837887 -20.541048
79.385124 17.909557 -20.541048
80.906151 14.909556 -19.896669
80.612114 15.909556 -19.541048
80.906151 15.160716 -19.541048
80.906151 15.825892 -18.541048
81.004417 14.909556 -19.541048
81.259605 14.909556 -18.541048
80.171928 16.909557 -19.541048
79.702751 17.909557 -19.541048
79.906151 17.457211 -19.541048
80.464470 16.909557 -18.541048
79.906151 17.909557 -18.918566
80.015160 17.909557 -18.541048
79.215660 18.909557 -19.541048
79.556725 18.909557 -18.541048
79.906151 18.168438 -18.541048
79.087242 19.909557 -18.541048
81.487083 14.909556 -17.541048
81.118553 15.909556 -17.541048
81.683067 14.909556 -16.541048
81.906151 14.254344 -16.541048
81.336021 15.909556 -16.541048
80.732201 16.909557 -17.541048
80.906151 16.464016 -17.541048
80.323936 17.909557 -17.541048
80.906151 16.909557 -16.818300
80.609917 17.909557 -16.541048
80.972069 16.909557 -16.541048
81.906151 14.724605 -15.541048
81.527214 15.909556 -15.541048
81.906151 14.909556 -15.117052
81.979698 14.909556 -14.541048
81.690880 15.909556 -14.541048
81.906151 15.142482 -14.541048
80.906151 17.771267 -15.541048
80.906151 17.909557 -15.386415
81.195274 16.909557 -15.541048
81.401085 16.909557 -14.541048
81.124809 17.909557 -14.541048
79.906151 18.905819 -17.541048
79.470879 19.909557 -17.541048
80.240196 18.909557 -16.541048
79.906151 19.782436 -16.541048
79.061241 20.909557 -17.541048
79.483910 20.909557 -16.541048
79.131401 21.909557 -16.541048
80.558495 18.909557 -15.541048
80.233849 19.909557 -15.541048
80.906151 18.728451 -14.541048
80.595726 19.909557 -14.541048
79.906151 20.896267 -15.541048
79.569115 21.909557 -15.541048
80.308556 20.909557 -14.541048
79.906151 21.909557 -14.778048
79.997215 21.909557 -14.541048
82.572868 -9.090446 -13.541048
82.749779 -8.090446 -13.541048
82.626335 -9.090446 -12.541048
82.796837 -8.090446 -12.541048
82.906151 -7.131431 -13.541048
82.906151 -7.090446 -13.645327
82.906151 -7.397865 -12.541048
82.650688 -9.090446 -11.541048
82.810081 -8.090446 -11.541048
82.641228 -9.090446 -10.541048
82.785484 -8.090446 -10.541048
82.906151 -7.456550 -11.541048
82.906151 -7.278205 -10.541048
83.063255 -6.090446 -13.541048
82.957573 -7.090446 -12.541048
83.101738 -6.090446 -12.541048
82.965721 -7.090446 -11.541048
83.107750 -6.090446 -11.541048
83.082420 -6.090446 -10.541048
83.177666 -5.090446 -13.541048
83.275108 -4.090446 -13.541048
83.215477 -5.090446 -12.541048
83.314171 -4.090446 -12.541048
83.366661 -3.090446 -13.541048
83.455650 -2.090446 -13.541048
83.407097 -3.090446 -12.541048
83.503563 -2.090446 -12.541048
83.226524 -5.090446 -11.541048
83.332329 -4.090446 -11.541048
83.209770 -5.090446 -10.541048
83.326653 -4.090446 -10.541048
83.429070 -3.090446 -11.541048
83.526634 -2.090446 -11.541048
83.428520 -3.090446 -10.541048
83.522667 -2.090446 -10.541048
82.606529 -9.090446 -9.541047
82.742180 -8.090446 -9.541047
82.544334 -9.090446 -8.541047
82.677147 -8.090446 -8.541047
82.886559 -7.090446 -9.541047
82.906151 -7.090446 -9.864808
82.815941 -7.090446 -8.541047
82.906151 -6.489265 -8.541047
82.453911 -9.090446 -7.541047
82.583977 -8.090446 -7.541047
82.350304 -9.090446 -6.541047
82.482750 -8.090446 -6.541047
82.723839 -7.090446 -7.541047
82.876183 -6.090446 -7.541047
82.906151 -6.090446 -7.862580
82.630241 -7.090446 -6.541047
82.791374 -6.090446 -6.541047
83.032982 -6.090446 -9.541047
82.963066 -6.090446 -8.541047
82.906151 -5.886894 -7.541047
82.906151 -5.384010 -6.541047
83.168297 -5.090446 -9.541047
83.297325 -4.090446 -9.541047
83.108879 -5.090446 -8.541047
83.247520 -4.090446 -8.541047
83.405083 -3.090446 -9.541047
83.494865 -2.090446 -9.541047
83.358116 -3.090446 -8.541047
83.446159 -2.090446 -8.541047
83.037956 -5.090446 -7.541047
83.188042 -4.090446 -7.541047
82.960686 -5.090446 -6.541047
83.122215 -4.090446 -6.541047
83.297813 -3.090446 -7.541047
83.382347 -2.090446 -7.541047
83.230095 -3.090446 -6.541047
83.306053 -2.090446 -6.541047
83.546593 -1.090445 -13.541048
83.614189 -0.090445 -13.541048
83.600639 -1.090445 -12.541048
83.665855 -0.090445 -12.541048
83.658043 0.909555 -13.541048
83.687706 1.909555 -13.541048
83.705620 0.909555 -12.541048
83.731316 1.909555 -12.541048
83.619041 -1.090445 -11.541048
83.683922 -0.090445 -11.541048
83.609154 -1.090445 -10.541048
83.678398 -0.090445 -10.541048
83.730064 0.909555 -11.541048
83.756126 1.909555 -11.541048
83.733696 0.909555 -10.541048
83.761620 1.909555 -10.541048
83.695518 2.909555 -13.541048
83.689629 3.909555 -13.541048
83.733482 2.909555 -12.541048
83.719292 3.909555 -12.541048
83.666283 4.909555 -13.541048
83.622215 5.909555 -13.541048
83.696861 4.909555 -12.541048
83.661003 5.909555 -12.541048
83.752159 2.909555 -11.541048
83.730553 3.909555 -11.541048
83.755852 2.909555 -10.541048
83.731865 3.909555 -10.541048
83.706505 4.909555 -11.541048
83.671532 5.909555 -11.541048
83.703667 4.909555 -10.541048
83.664604 5.909555 -10.541048
83.577538 -1.090445 -9.541047
83.651878 -0.090445 -9.541047
83.527611 -1.090445 -8.541047
83.601097 -0.090445 -8.541047
83.712486 0.909555 -9.541047
83.743828 1.909555 -9.541047
83.662254 0.909555 -8.541047
83.701225 1.909555 -8.541047
83.461143 -1.090445 -7.541047
83.529411 -0.090445 -7.541047
83.375481 -1.090445 -6.541047
83.437157 -0.090445 -6.541047
83.587395 0.909555 -7.541047
83.629967 1.909555 -7.541047
83.493614 0.909555 -6.541047
83.536400 1.909555 -6.541047
83.744011 2.909555 -9.541047
83.723015 3.909555 -9.541047
83.713676 2.909555 -8.541047
83.700310 3.909555 -8.541047
83.691246 4.909555 -9.541047
83.648308 5.909555 -9.541047
83.669456 4.909555 -8.541047
83.627403 5.909555 -8.541047
83.654228 2.909555 -7.541047
83.656303 3.909555 -7.541047
83.566399 2.909555 -6.541047
83.581718 3.909555 -6.541047
83.634148 4.909555 -7.541047
83.595451 5.909555 -7.541047
83.571312 4.909555 -6.541047
83.539360 5.909555 -6.541047
82.241142 -9.090446 -5.541047
82.381310 -8.090446 -5.541047
82.125969 -9.090446 -4.541047
82.271477 -8.090446 -4.541047
82.537193 -7.090446 -5.541047
82.705376 -6.090446 -5.541047
82.432365 -7.090446 -4.541047
82.602898 -6.090446 -4.541047
81.906151 -9.677162 -3.541047
81.994408 -9.090446 -3.541047
82.143486 -8.090446 -3.541047
81.850822 -9.090446 -2.541047
81.906151 -9.090446 -2.956727
81.906151 -8.714745 -2.541047
81.998741 -8.090446 -2.541047
82.310722 -7.090446 -3.541047
82.479118 -6.090446 -3.541047
82.168755 -7.090446 -2.541047
82.335320 -6.090446 -2.541047
82.873314 -5.090446 -5.541047
82.906151 -5.090446 -5.877992
82.764458 -5.090446 -4.541047
82.899071 -4.090446 -4.541047
82.630699 -5.090446 -3.541047
82.750633 -4.090446 -3.541047
82.481316 -5.090446 -2.541047
82.600792 -4.090446 -2.541047
82.843346 -3.090446 -3.541047
82.906151 -3.090446 -3.941392
82.906151 -2.350318 -3.541047
82.698662 -3.090446 -2.541047
82.777916 -2.090446 -2.541047
82.906151 -2.090446 -3.424881
83.030510 -4.090446 -5.541047
83.132133 -3.090446 -5.541047
83.204735 -2.090446 -5.541047
82.994652 -3.090446 -4.541047
83.073601 -2.090446 -4.541047
81.708305 -9.090446 -1.541047
81.851036 -8.090446 -1.541047
81.906151 -8.090446 -1.895401
81.563622 -9.090446 -0.541046
81.704002 -8.090446 -0.541046
81.906151 -7.709648 -1.541047
82.009941 -7.090446 -1.541047
82.170921 -6.090446 -1.541047
81.848595 -7.090446 -0.541046
81.906151 -7.090446 -0.927033
81.906151 -6.721809 -0.541046
81.995476 -6.090446 -0.541046
81.420311 -9.090446 0.458954
81.561607 -8.090446 0.458954
81.698967 -7.090446 0.458954
81.828575 -6.090446 0.458954
81.906151 -6.090446 0.003647
82.315269 -5.090446 -1.541047
82.441978 -4.090446 -1.541047
82.134697 -5.090446 -0.541046
82.263786 -4.090446 -0.541046
82.546227 -3.090446 -1.541047
82.626671 -2.090446 -1.541047
82.372215 -3.090446 -0.541046
82.460564 -2.090446 -0.541046
81.906151 -5.428077 0.458954
81.950310 -5.090446 0.458954
82.068748 -4.090446 0.458954
81.906151 -5.090446 0.682693
82.175468 -3.090446 0.458954
82.274620 -2.090446 0.458954
82.842369 -1.090445 -2.541047
82.906151 -1.090445 -2.995545
82.896599 -0.090445 -2.541047
83.267754 -1.090445 -5.541047
83.324638 -0.090445 -5.541047
83.139091 -1.090445 -4.541047
83.196281 -0.090445 -4.541047
83.379845 0.909555 -5.541047
83.423729 1.909555 -5.541047
83.249168 0.909555 -4.541047
83.292015 1.909555 -4.541047
82.993156 -1.090445 -3.541047
83.051048 -0.090445 -3.541047
83.102928 0.909555 -3.541047
83.145195 1.909555 -3.541047
82.946739 0.909555 -2.541047
82.985435 1.909555 -2.541047
83.459251 2.909555 -5.541047
83.481255 3.909555 -5.541047
83.329521 2.909555 -4.541047
83.354271 3.909555 -4.541047
83.477715 4.909555 -5.541047
83.452507 5.909555 -5.541047
83.358147 4.909555 -4.541047
83.338707 5.909555 -4.541047
83.180229 2.909555 -3.541047
83.203941 3.909555 -3.541047
83.014610 2.909555 -2.541047
83.040489 3.909555 -2.541047
83.213737 4.909555 -3.541047
83.200096 5.909555 -3.541047
83.054131 4.909555 -2.541047
83.045738 5.909555 -2.541047
82.698021 -1.090445 -1.541047
82.752556 -0.090445 -1.541047
82.543999 -1.090445 -0.541046
82.605492 -0.090445 -0.541046
82.796379 0.909555 -1.541047
82.906151 0.909555 -2.268967
82.827232 1.909555 -1.541047
82.906151 1.909555 -2.039856
82.653313 0.909555 -0.541046
82.690269 1.909555 -0.541046
82.372246 -1.090445 0.458954
82.449028 -0.090445 0.458954
82.513664 0.909555 0.458954
82.566887 1.909555 0.458954
82.848381 2.909555 -1.541047
82.906151 2.909555 -1.889557
82.874962 3.909555 -1.541047
82.713829 2.909555 -0.541046
82.736992 3.909555 -0.541046
82.888634 4.909555 -1.541047
82.887291 5.909555 -1.541047
82.744804 4.909555 -0.541046
82.748009 5.909555 -0.541046
82.596794 2.909555 0.458954
82.615868 3.909555 0.458954
82.623070 4.909555 0.458954
82.631248 5.909555 0.458954
83.552330 6.909555 -13.541048
83.443626 7.909555 -13.541048
83.595207 6.909555 -12.541048
83.492973 7.909555 -12.541048
83.314384 8.909555 -13.541048
83.176384 9.909555 -13.541048
83.364769 8.909555 -12.541048
83.227501 9.909555 -12.541048
83.607872 6.909555 -11.541048
83.516655 7.909555 -11.541048
83.601677 6.909555 -10.541048
83.519127 7.909555 -10.541048
83.397545 8.909555 -11.541048
83.264091 9.909555 -11.541048
83.410362 8.909555 -10.541048
83.282890 9.909555 -10.541048
82.824974 11.909556 -13.541048
82.906151 11.478099 -13.541048
82.906151 11.751918 -12.541048
82.614555 12.909556 -13.541048
82.378502 13.909556 -13.541048
82.677391 12.909556 -12.541048
82.467247 13.909556 -12.541048
82.906151 11.909556 -11.848757
82.733696 12.909556 -11.541048
82.543785 13.909556 -11.541048
82.788933 12.909556 -10.541048
82.906151 12.246913 -10.541048
82.617577 13.909556 -10.541048
83.018456 10.909556 -13.541048
83.073296 10.909556 -12.541048
83.111961 10.909556 -11.541048
82.920708 11.909556 -11.541048
83.138206 10.909556 -10.541048
82.965172 11.909556 -10.541048
83.587852 6.909555 -9.541047
83.511284 7.909555 -9.541047
83.570366 6.909555 -8.541047
83.495476 7.909555 -8.541047
83.410393 8.909555 -9.541047
83.289543 9.909555 -9.541047
83.399040 8.909555 -8.541047
83.284569 9.909555 -8.541047
83.538567 6.909555 -7.541047
83.463402 7.909555 -7.541047
83.483391 6.909555 -6.541047
83.407097 7.909555 -6.541047
83.371605 8.909555 -7.541047
83.264366 9.909555 -7.541047
83.321342 8.909555 -6.541047
83.225212 9.909555 -6.541047
82.841881 12.909556 -9.541047
82.906151 12.525905 -9.541047
82.686424 13.909556 -9.541047
82.906151 12.744380 -8.541047
82.743828 13.909556 -8.541047
82.906151 12.857326 -7.541047
82.787132 13.909556 -7.541047
82.906151 12.909556 -7.055634
82.824730 13.909556 -6.541047
83.156242 10.909556 -9.541047
83.005699 11.909556 -9.541047
83.159691 10.909556 -8.541047
83.027519 11.909556 -8.541047
83.148033 10.909556 -7.541047
83.028221 11.909556 -7.541047
83.121971 10.909556 -6.541047
83.018517 11.909556 -6.541047
82.912224 12.909556 -6.541047
82.110222 14.909556 -13.541048
81.841820 15.909556 -13.541048
81.906151 15.638728 -13.541048
82.231865 14.909556 -12.541048
81.906151 15.909556 -13.125566
81.994530 15.909556 -12.541048
81.600792 16.909557 -13.541048
81.380302 17.909557 -13.541048
81.793175 16.909557 -12.541048
81.906151 16.338848 -12.541048
81.624504 17.909557 -12.541048
82.343315 14.909556 -11.541048
82.146751 15.909556 -11.541048
82.449638 14.909556 -10.541048
82.291985 15.909556 -10.541048
81.906151 16.909557 -11.902712
81.978386 16.909557 -11.541048
81.849785 17.909557 -11.541048
81.906151 17.403042 -11.541048
82.165886 16.909557 -10.541048
81.906151 17.909557 -11.305040
82.076775 17.909557 -10.541048
80.906151 18.909557 -14.369265
81.166710 18.909557 -13.541048
80.940636 19.909557 -13.541048
81.461205 18.909557 -12.541048
81.283836 19.909557 -12.541048
80.701103 20.909557 -13.541048
80.412437 21.909557 -13.541048
80.906151 20.909557 -12.991091
80.801231 21.909557 -12.541048
80.906151 21.522488 -12.541048
81.072746 20.909557 -12.541048
81.733330 18.909557 -11.541048
81.601494 19.909557 -11.541048
81.906151 18.909557 -10.905169
81.997826 18.909557 -10.541048
81.906151 19.904293 -10.541048
80.906151 21.909557 -12.253588
81.426964 20.909557 -11.541048
81.177635 21.909557 -11.541048
81.769371 20.909557 -10.541048
81.546989 21.909557 -10.541048
82.546349 14.909556 -9.541047
82.425407 15.909556 -9.541047
82.629265 14.909556 -8.541047
82.542747 15.909556 -8.541047
82.342430 16.909557 -9.541047
82.297874 17.909557 -9.541047
82.496910 16.909557 -8.541047
82.491447 17.909557 -8.541047
82.702110 14.909556 -7.541047
82.649895 15.909556 -7.541047
82.766045 14.909556 -6.541047
82.747246 15.909556 -6.541047
82.636833 16.909557 -7.541047
82.661308 17.909557 -7.541047
82.769127 16.909557 -6.541047
82.819756 17.909557 -6.541047
82.261192 18.909557 -9.541047
82.206841 19.909557 -9.541047
82.495293 18.909557 -8.541047
82.474571 19.909557 -8.541047
81.906151 20.909557 -10.100343
82.096306 20.909557 -9.541047
81.906151 21.863110 -9.541047
82.395592 20.909557 -8.541047
82.222679 21.909557 -8.541047
82.696526 18.909557 -7.541047
82.704491 19.909557 -7.541047
82.906151 19.724270 -6.541047
82.654930 20.909557 -7.541047
82.516624 21.909557 -7.541047
82.770256 21.909557 -6.541047
83.401146 6.909555 -5.541047
83.326836 7.909555 -5.541047
83.292168 6.909555 -4.541047
83.227043 7.909555 -4.541047
83.249260 8.909555 -5.541047
83.167564 9.909555 -5.541047
83.160728 8.909555 -4.541047
83.093132 9.909555 -4.541047
83.160973 6.909555 -3.541047
83.111229 7.909555 -3.541047
83.018761 6.909555 -2.541047
82.986473 7.909555 -2.541047
83.060204 8.909555 -3.541047
83.010796 9.909555 -3.541047
82.955223 8.909555 -2.541047
82.932549 9.909555 -2.541047
82.864922 13.909556 -5.541047
82.906151 13.178248 -5.541047
82.899681 13.909556 -4.541047
82.906151 13.651546 -4.541047
82.904747 11.909556 -2.541047
82.906151 11.673671 -2.541047
82.906151 13.909556 -4.242112
82.905449 12.909556 -2.541047
83.081871 10.909556 -5.541047
83.002586 11.909556 -5.541047
83.029655 10.909556 -4.541047
82.979546 11.909556 -4.541047
82.927299 12.909556 -5.541047
82.935814 12.909556 -4.541047
82.971275 10.909556 -3.541047
82.944908 11.909556 -3.541047
82.916161 10.909556 -2.541047
82.927269 12.909556 -3.541047
82.915947 13.909556 -3.541047
82.913811 13.909556 -2.541047
82.878563 6.909555 -1.541047
82.865257 7.909555 -1.541047
82.906151 7.909555 -1.879578
82.756432 6.909555 -0.541046
82.760246 7.909555 -0.541046
82.857475 8.909555 -1.541047
82.906151 8.909555 -2.042771
82.863243 9.909555 -1.541047
82.906151 9.909555 -2.157731
82.771477 8.909555 -0.541046
82.795433 9.909555 -0.541046
82.648460 6.909555 0.458954
82.662621 7.909555 0.458954
82.686852 8.909555 0.458954
82.721794 9.909555 0.458954
82.867058 10.909556 -1.541047
82.906151 10.909556 -2.329957
82.867882 11.909556 -1.541047
82.812767 10.909556 -0.541046
82.826744 11.909556 -0.541046
82.879906 12.909556 -1.541047
82.900566 13.909556 -1.541047
82.906151 13.909556 -1.891159
82.848747 12.909556 -0.541046
82.879265 13.909556 -0.541046
82.749229 10.909556 0.458954
82.775505 11.909556 0.458954
82.808037 12.909556 0.458954
82.850670 13.909556 0.458954
82.827538 14.909556 -5.541047
82.835258 15.909556 -5.541047
82.885368 14.909556 -4.541047
82.906151 15.716578 -4.541047
82.906151 17.088741 -5.541047
82.906151 17.909557 -5.956178
82.906151 16.909557 -5.421296
82.906151 14.909556 -4.062287
82.974785 17.909557 -5.541047
83.003136 16.909557 -4.541047
83.108665 17.909557 -4.541047
82.926384 14.909556 -3.541047
82.982689 15.909556 -3.541047
82.947014 14.909556 -2.541047
83.025536 15.909556 -2.541047
83.088402 16.909557 -3.541047
83.211235 17.909557 -3.541047
83.146416 16.909557 -2.541047
83.281731 17.909557 -2.541047
82.906151 18.909557 -6.358460
82.906151 20.909557 -6.406846
82.906151 21.909557 -5.925218
83.051109 18.909557 -5.541047
83.100090 19.909557 -5.541047
83.197777 18.909557 -4.541047
83.260582 19.909557 -4.541047
83.089836 20.909557 -5.541047
82.995384 21.909557 -5.541047
83.264854 20.909557 -4.541047
83.185936 21.909557 -4.541047
83.312096 18.909557 -3.541047
83.385002 19.909557 -3.541047
83.395897 18.909557 -2.541047
83.476555 19.909557 -2.541047
83.401146 20.909557 -3.541047
83.340172 21.909557 -3.541047
83.501335 20.909557 -2.541047
83.457359 21.909557 -2.541047
82.906151 14.458018 -0.541046
82.906151 14.773540 0.458954
82.906151 14.909556 0.871429
82.952354 14.909556 -1.541047
83.049278 15.909556 -1.541047
82.941460 14.909556 -0.541046
83.050285 15.909556 -0.541046
83.178795 16.909557 -1.541047
83.319237 17.909557 -1.541047
83.183708 16.909557 -0.541046
83.323967 17.909557 -0.541046
83.031029 15.909556 0.458954
83.161949 16.909557 0.458954
83.299736 17.909557 0.458954
83.445732 18.909557 -1.541047
83.536461 19.909557 -1.541047
83.457603 18.909557 -0.541046
83.556084 19.909557 -0.541046
83.572136 20.909557 -1.541047
83.543846 21.909557 -1.541047
83.605247 20.909557 -0.541046
83.598320 21.909557 -0.541046
83.439049 18.909557 0.458954
83.542900 19.909557 0.458954
83.604027 20.909557 0.458954
83.616295 21.909557 0.458954
79.127739 34.909557 -26.541050
79.633263 35.909557 -26.541050
78.939384 36.909557 -27.541050
78.911491 37.909561 -27.541050
79.256126 33.909557 -25.541050
79.139580 32.909557 -24.541050
79.906151 33.738186 -24.541050
79.906151 33.909557 -24.728626
80.035637 33.909557 -24.541050
79.618370 31.909559 -22.541050
80.689476 33.909557 -23.541050
79.906151 32.231152 -22.541050
79.906151 32.909557 -23.500950
80.510246 32.909557 -22.541050
80.906151 33.396465 -22.541050
80.906151 33.909557 -23.188786
81.254295 33.909557 -22.541050
79.906151 34.821102 -25.541050
79.906151 35.909557 -26.202854
80.425468 35.909557 -25.541050
80.663628 34.909557 -24.541050
80.906151 35.408199 -24.541050
80.906151 35.909557 -24.850742
81.102165 35.909557 -24.541050
79.906151 36.909557 -26.484577
80.654533 36.909557 -25.541050
79.906151 37.909561 -26.457752
80.655540 37.909561 -25.541050
80.906151 36.909557 -25.186619
80.906151 37.909561 -25.203938
81.333794 36.909557 -24.541050
81.367027 37.909561 -24.541050
80.906151 34.252850 -23.541050
80.906151 34.909557 -24.146503
81.262810 34.909557 -23.541050
81.694054 35.909557 -23.541050
81.800377 34.909557 -22.541050
81.906151 35.133785 -22.541050
81.906151 35.909557 -23.165775
82.220757 35.909557 -22.541050
81.906151 36.793056 -23.541050
81.966637 37.909561 -23.541050
82.449760 36.909557 -22.541050
82.495232 37.909561 -22.541050
79.170952 29.909557 -19.541048
79.547203 29.909557 -18.541048
79.255363 22.909557 -15.541048
78.981102 23.909557 -15.541048
79.684654 22.909557 -14.541048
79.906151 22.221066 -14.541048
79.389519 23.909557 -14.541048
79.166557 24.909557 -14.541048
79.052330 25.909557 -14.541048
79.858208 29.909557 -17.541048
79.258934 28.909557 -16.541048
79.906151 29.673260 -16.541048
79.906151 29.909557 -17.376451
80.117607 29.909557 -16.541048
79.014671 27.909557 -15.541048
79.072136 26.909557 -14.541048
79.297295 27.909557 -14.541048
79.540215 28.909557 -15.541048
79.906151 29.410686 -15.541048
80.304863 29.909557 -15.541048
79.755486 28.909557 -14.541048
79.906151 29.156963 -14.541048
80.425499 29.909557 -14.541048
79.300072 30.909559 -21.541048
79.906151 31.551435 -21.541048
79.906151 31.909559 -22.065172
80.215050 31.909559 -21.541048
79.818047 30.909559 -20.541048
80.714989 31.909559 -20.541048
80.906151 32.720913 -21.541048
80.906151 32.909557 -21.829378
80.906151 32.135204 -20.541048
81.060051 32.909557 -21.541048
81.753807 33.909557 -21.541048
81.525169 32.909557 -20.541048
81.906151 33.449093 -20.541048
81.906151 33.909557 -21.214586
82.191887 33.909557 -20.541048
79.906151 30.589186 -19.541048
79.906151 30.909559 -20.338091
80.215965 30.909559 -19.541048
80.906151 31.668623 -19.541048
80.906151 31.909559 -20.081255
79.906151 30.262465 -18.541048
80.529716 30.909559 -18.541048
80.906151 31.313856 -18.541048
81.103264 31.909559 -19.541048
81.400322 31.909559 -18.541048
82.569939 33.909557 -19.541048
81.906151 32.554394 -18.541048
81.906151 32.909557 -19.492189
82.178764 32.909557 -18.541048
82.847496 33.909557 -18.541048
81.906151 34.181286 -21.541048
81.906151 34.909557 -22.316118
82.293053 34.909557 -21.541048
82.707542 35.909557 -21.541048
82.744011 34.909557 -20.541048
82.906151 35.261379 -20.541048
82.906151 35.909557 -21.112764
82.906151 36.860363 -21.541048
82.906151 34.500271 -19.541048
82.906151 34.909557 -20.116335
83.146019 35.909557 -20.541048
82.960014 37.909561 -21.541048
83.353722 36.909557 -20.541048
83.413780 37.909561 -20.541048
83.119530 34.909557 -19.541048
83.541344 35.909557 -19.541048
83.412468 34.909557 -18.541048
83.855309 35.909557 -18.541048
83.770256 36.909557 -19.541048
83.906151 36.909557 -19.187181
84.107903 36.909557 -18.541048
83.906151 37.909561 -19.405245
84.214256 37.909561 -18.541048
80.795921 30.909559 -17.541048
80.906151 30.791197 -16.541048
80.906151 30.909559 -17.067797
81.635094 31.909559 -17.541048
81.797630 31.909559 -16.541048
81.906151 32.261501 -17.541048
82.392448 32.909557 -17.541048
82.906151 33.682369 -17.541048
82.906151 33.909557 -18.252504
82.521477 32.909557 -16.541048
82.906151 33.493099 -16.541048
80.906151 30.633497 -15.541048
80.906151 30.557524 -14.541048
81.123131 30.909559 -15.541048
81.880730 31.909559 -15.541048
81.171104 30.909559 -14.541048
81.893181 31.909559 -14.541048
82.577293 32.909557 -15.541048
82.906151 33.419720 -15.541048
82.569084 32.909557 -14.541048
82.906151 33.441875 -14.541048
83.038902 33.909557 -17.541048
83.156212 33.909557 -16.541048
83.202599 33.909557 -15.541048
83.186516 33.909557 -14.541048
83.619164 34.909557 -17.541048
83.906151 35.473537 -17.541048
83.906151 35.909557 -18.332689
84.085808 35.909557 -17.541048
83.755516 34.909557 -16.541048
83.906151 35.172619 -16.541048
84.254387 35.909557 -16.541048
84.368797 36.909557 -17.541048
84.497185 37.909561 -17.541048
84.561058 36.909557 -16.541048
84.704796 37.909561 -16.541048
83.821770 34.909557 -15.541048
84.358177 35.909557 -15.541048
83.811699 34.909557 -14.541048
84.372246 35.909557 -14.541048
84.692375 36.909557 -15.541048
84.848015 37.909561 -15.541048
84.744530 36.909557 -14.541048
84.906151 37.775463 -14.541048
84.906151 37.909561 -14.873446
79.706230 38.909561 -26.541050
79.625389 39.909561 -26.541050
79.720818 40.909561 -26.541050
79.906151 41.624786 -26.541050
79.994804 41.909561 -26.541050
79.326530 43.909561 -27.541050
79.906151 42.909561 -26.904606
80.369011 42.909561 -26.541050
79.906151 43.909561 -27.164021
80.731651 43.909561 -26.541050
79.694084 44.909561 -27.541050
79.906151 45.352142 -27.541050
79.906151 45.909561 -27.759815
80.217003 45.909561 -27.541050
79.906151 44.909561 -27.404163
80.906151 44.489807 -26.541050
80.906151 45.909561 -27.035358
81.049034 44.909561 -26.541050
81.444633 45.909561 -26.541050
79.906151 38.909561 -26.315418
80.585136 38.909561 -25.541050
79.906151 39.909561 -26.254765
80.588982 39.909561 -25.541050
80.906151 38.909561 -25.143665
80.906151 39.909561 -25.183552
81.355644 38.909561 -24.541050
81.428581 39.909561 -24.541050
79.906151 40.909561 -26.369968
80.756340 40.909561 -25.541050
80.906151 41.423050 -25.541050
80.906151 41.909561 -25.706837
80.906151 40.909561 -25.384403
81.070030 41.909561 -25.541050
81.632561 40.909561 -24.541050
81.906151 41.776672 -24.541050
81.994469 38.909561 -23.541050
81.906151 39.909561 -23.869556
82.131401 39.909561 -23.541050
82.548393 38.909561 -22.541050
82.749352 39.909561 -22.541050
81.906151 40.909561 -24.181690
82.387352 40.909561 -23.541050
82.728874 41.909561 -23.541050
82.906151 40.469574 -22.541050
82.906151 40.909561 -22.783573
82.906151 41.909561 -23.295811
83.053886 40.909561 -22.541050
83.380669 41.909561 -22.541050
80.906151 42.909561 -26.076389
80.906151 43.909561 -26.397251
81.449669 42.909561 -25.541050
81.906151 42.909561 -25.038441
82.322807 42.909561 -24.541050
81.906151 43.909561 -25.411747
82.608208 43.909561 -24.541050
81.906151 44.371338 -25.541050
81.906151 44.909561 -25.702427
82.050682 44.909561 -25.541050
81.906151 45.909561 -26.061268
82.365776 45.909561 -25.541050
82.906151 45.284576 -24.541050
82.906151 45.909561 -24.819019
82.906151 42.437668 -23.541050
82.906151 42.909561 -23.756046
82.906151 43.909561 -24.104252
82.906151 44.909561 -24.400623
83.100060 45.909561 -24.541050
83.055138 42.909561 -23.541050
83.275017 43.909561 -23.541050
83.678795 42.909561 -22.541050
83.460960 44.909561 -23.541050
83.774803 45.909561 -23.541050
83.906151 44.909561 -22.843800
84.110039 44.909561 -22.541050
83.906151 45.909561 -23.359776
84.555687 45.909561 -22.541050
79.906151 47.801117 -29.541050
80.906151 47.742188 -28.541050
80.906151 47.909561 -28.716373
81.096855 47.909561 -28.541050
79.906151 48.909561 -30.510731
80.906151 48.790268 -29.541050
81.906151 49.768066 -29.541050
81.906151 49.909561 -29.714710
82.096306 49.909561 -29.541050
81.906151 48.718781 -28.541050
81.906151 48.909561 -28.697620
82.073845 48.909561 -28.541050
82.906151 49.720306 -28.541050
82.906151 49.909561 -28.775150
79.906151 46.909561 -28.446491
80.906151 46.817200 -27.541050
81.906151 47.711075 -27.541050
81.906151 47.909561 -27.752842
82.129326 47.909561 -27.541050
81.906151 46.760971 -26.541050
81.906151 46.909561 -26.686344
82.036522 46.909561 -26.541050
82.906151 47.726578 -26.541050
82.906151 47.909561 -26.774708
82.906151 48.647827 -27.541050
82.906151 48.909561 -27.767124
83.132133 49.909561 -28.541050
83.139153 47.909561 -26.541050
83.155022 48.909561 -27.541050
83.906151 49.658096 -27.541050
83.906151 49.909561 -27.800587
84.170158 49.909561 -27.541050
83.906151 48.557739 -26.541050
83.906151 48.909561 -26.856953
84.256920 48.909561 -26.541050
84.906151 49.561066 -26.541050
84.906151 49.909561 -26.861210
85.256676 49.909561 -26.541050
82.906151 50.494019 -29.541050
82.906151 50.909561 -30.034870
83.392387 50.909561 -29.541050
83.906151 51.465607 -29.541050
83.906151 51.909561 -29.881184
84.197075 51.909561 -29.541050
83.906151 50.547302 -28.541050
83.906151 50.909561 -28.988743
84.299370 50.909561 -28.541050
84.906151 51.676956 -28.541050
85.030174 51.909561 -28.541050
84.906151 52.909561 -29.442570
85.553246 52.909561 -28.541050
85.906151 53.543625 -28.541050
84.906151 50.561813 -27.541050
84.906151 50.909561 -27.899448
85.243340 50.909561 -27.541050
85.906151 50.582916 -26.541050
85.906151 50.909561 -26.833424
86.154655 50.909561 -26.541050
85.906151 51.909561 -27.464405
86.617668 51.909561 -26.541050
85.906151 52.909561 -28.028278
86.252037 52.909561 -27.541050
86.906151 52.798141 -26.541050
82.906151 46.909561 -25.514301
83.906151 47.792068 -25.541050
83.906151 47.909561 -25.724491
84.095116 47.909561 -25.541050
83.662468 46.909561 -24.541050
83.906151 47.173157 -24.541050
84.906151 47.745560 -24.541050
84.906151 47.909561 -24.798328
85.201988 47.909561 -24.541050
84.906151 48.486526 -25.541050
84.906151 48.909561 -25.930851
85.348625 48.909561 -25.541050
85.906151 49.478821 -25.541050
85.906151 49.909561 -25.909351
86.273460 49.909561 -25.541050
85.906151 48.420319 -24.541050
85.906151 48.909561 -25.016651
86.360527 48.909561 -24.541050
86.906151 49.542938 -24.541050
86.906151 49.909561 -24.856098
83.906151 46.186905 -23.541050
83.906151 46.909561 -24.217762
84.587486 46.909561 -23.541050
84.906151 47.118546 -23.541050
84.906151 46.369003 -22.541050
84.906151 46.909561 -23.249241
85.906151 47.607040 -23.541050
85.906151 47.909561 -23.954533
86.300835 47.909561 -23.541050
85.771751 46.909561 -22.541050
86.906151 47.691330 -22.541050
86.906151 47.909561 -22.831669
86.906151 48.519623 -23.541050
86.906151 48.909561 -23.927509
86.906151 50.772949 -25.541050
86.906151 51.909561 -26.130283
87.148186 49.909561 -24.541050
87.102592 47.909561 -22.541050
87.210075 48.909561 -23.541050
87.906151 49.909561 -23.473011
88.371056 49.909561 -22.541050
87.320732 51.909561 -25.541050
87.681847 50.909561 -24.541050
87.906151 51.662079 -24.541050
87.956810 51.909561 -24.541050
87.602470 52.909561 -25.541050
87.906151 53.714462 -25.541050
87.906151 52.909561 -25.047581
88.183434 52.909561 -24.541050
87.906151 50.909561 -24.181751
88.277031 50.909561 -23.541050
88.497246 51.909561 -23.541050
88.738548 50.909561 -22.541050
88.906151 51.769760 -22.541050
88.693199 52.909561 -23.541050
88.906151 53.673157 -23.541050
88.906151 52.909561 -23.064350
89.115929 52.909561 -22.541050
82.906151 38.909561 -21.793169
82.906151 39.909561 -22.249392
83.036949 38.909561 -21.541048
83.316093 39.909561 -21.541048
83.513084 38.909561 -20.541048
83.815727 39.909561 -20.541048
83.653069 40.909561 -21.541048
83.906151 41.749222 -21.541048
83.906151 40.170654 -20.541048
83.906151 40.909561 -21.070238
84.138176 40.909561 -20.541048
84.407890 41.909561 -20.541048
83.906151 38.647263 -19.541048
83.946251 38.909561 -19.541048
83.906151 39.909561 -20.325136
84.217491 39.909561 -19.541048
84.306969 38.909561 -18.541048
84.528069 39.909561 -18.541048
84.516380 40.909561 -19.541048
84.754265 41.909561 -19.541048
84.787865 40.909561 -18.541048
84.906151 41.404800 -18.541048
84.906151 41.909561 -19.007586
85.029350 41.909561 -18.541048
83.906151 42.909561 -22.120821
84.214043 42.909561 -21.541048
83.906151 43.909561 -22.492144
84.438469 43.909561 -21.541048
84.639732 42.909561 -20.541048
84.747398 44.909561 -21.541048
84.906151 45.279724 -21.541048
84.906151 45.909561 -22.076555
84.906151 44.909561 -21.250216
85.342674 45.909561 -21.541048
85.288628 44.909561 -20.541048
85.906151 45.852844 -20.541048
85.906151 45.909561 -20.622179
84.906151 42.652893 -19.541048
84.906151 43.909561 -20.421587
84.968193 42.909561 -19.541048
85.240532 43.909561 -19.541048
85.279320 42.909561 -18.541048
85.556023 43.909561 -18.541048
85.687035 44.909561 -19.541048
85.906151 45.253281 -19.541048
86.501854 45.909561 -19.541048
85.906151 44.766876 -18.541048
85.906151 44.909561 -18.837313
85.998222 44.909561 -18.541048
84.579460 38.909561 -17.541048
84.733757 39.909561 -17.541048
84.776482 38.909561 -16.541048
84.869225 39.909561 -16.541048
84.906151 40.690659 -17.541048
84.906151 40.909561 -17.888277
84.906151 40.135315 -16.541048
84.960472 40.909561 -17.541048
85.227226 41.909561 -17.541048
85.073174 40.909561 -16.541048
85.343895 41.909561 -16.541048
84.906151 39.909561 -16.160295
84.906151 38.909561 -15.530825
84.957237 39.909561 -15.541048
84.987297 38.909561 -14.541048
85.015800 39.909561 -14.541048
85.131096 40.909561 -15.541048
85.397636 41.909561 -15.541048
85.139000 40.909561 -14.541048
85.382256 41.909561 -14.541048
85.505577 42.909561 -17.541048
85.796410 43.909561 -17.541048
85.638390 42.909561 -16.541048
85.906151 43.784805 -16.541048
85.906151 43.909561 -16.863039
85.906151 44.236725 -17.541048
86.280144 44.909561 -17.541048
86.906151 45.566269 -17.541048
86.500816 44.909561 -16.541048
86.906151 45.335068 -16.541048
85.705894 42.909561 -15.541048
85.906151 43.513489 -15.541048
86.068810 43.909561 -15.541048
85.704185 42.909561 -14.541048
85.906151 43.446518 -14.541048
86.131371 43.909561 -14.541048
86.688377 44.909561 -15.541048
86.906151 45.126678 -15.541048
86.866631 44.909561 -14.541048
86.989189 45.909561 -18.541048
87.456169 45.909561 -17.541048
87.817406 45.909561 -16.541048
87.906151 45.808365 -15.541048
87.906151 45.909561 -16.166201
87.906151 45.663651 -14.541048
88.117149 45.909561 -14.541048
85.906151 46.455673 -21.541048
85.906151 46.909561 -22.408617
86.601982 46.909561 -21.541048
86.906151 47.109451 -21.541048
86.906151 46.667908 -20.541048
86.906151 46.909561 -21.106096
86.906151 46.244156 -19.541048
87.679192 47.909561 -21.541048
87.261528 46.909561 -20.541048
87.906151 47.546265 -20.541048
87.906151 47.909561 -21.091982
88.142296 47.909561 -20.541048
87.906151 48.231155 -21.541048
87.906151 48.909561 -22.415789
88.299767 48.909561 -21.541048
88.765343 49.909561 -21.541048
88.679008 48.909561 -20.541048
88.906151 49.428116 -20.541048
88.906151 49.909561 -21.125628
89.078758 49.909561 -20.541048
87.906151 46.994705 -19.541048
88.520531 47.909561 -19.541048
87.906151 46.578186 -18.541048
87.906151 46.909561 -19.361742
88.215965 46.909561 -18.541048
88.817192 47.909561 -18.541048
88.906151 48.720261 -19.541048
88.906151 48.909561 -19.813997
88.906151 48.100098 -18.541048
88.975273 48.909561 -19.541048
89.330742 49.909561 -19.541048
89.199699 48.909561 -18.541048
89.525658 49.909561 -18.541048
88.906151 50.294205 -21.541048
88.906151 50.909561 -22.079393
89.086937 50.909561 -21.541048
89.271568 51.909561 -21.541048
89.370110 50.909561 -20.541048
89.551872 51.909561 -20.541048
89.462395 52.909561 -21.541048
89.750450 52.909561 -20.541048
89.906151 53.526657 -20.541048
89.604759 50.909561 -19.541048
89.787651 51.909561 -19.541048
89.785057 50.909561 -18.541048
89.906151 51.505981 -18.541048
89.906151 51.909561 -18.969896
89.977989 51.909561 -18.541048
89.906151 52.513611 -19.541048
89.906151 52.909561 -19.902407
89.994987 52.909561 -19.541048
90.196251 52.909561 -18.541048
87.906151 46.232437 -17.541048
88.510735 46.909561 -17.541048
88.906151 47.586639 -17.541048
88.906151 47.909561 -18.190386
88.705193 46.909561 -16.541048
88.906151 47.249283 -16.541048
89.037285 47.909561 -17.541048
89.180412 47.909561 -16.541048
89.388603 48.909561 -17.541048
89.667381 49.909561 -17.541048
89.507011 48.909561 -16.541048
89.758873 49.909561 -16.541048
88.769707 46.909561 -15.541048
88.906151 47.148407 -15.541048
88.778679 46.909561 -14.541048
88.906151 47.164490 -14.541048
89.219322 47.909561 -15.541048
89.185020 47.909561 -14.541048
89.542839 48.909561 -15.541048
89.809135 49.909561 -15.541048
89.504326 48.909561 -14.541048
89.804527 49.909561 -14.541048
90.112907 51.909561 -17.541048
89.906151 50.559143 -16.541048
89.906151 50.909561 -17.497332
89.987328 50.909561 -16.541048
90.213463 51.909561 -16.541048
90.342979 52.909561 -17.541048
90.450279 52.909561 -16.541048
89.906151 50.308884 -15.541048
90.056297 50.909561 -15.541048
90.292534 51.909561 -15.541048
89.906151 50.282562 -14.541048
90.074913 50.909561 -14.541048
90.318138 51.909561 -14.541048
90.520439 52.909561 -15.541048
90.538475 52.909561 -14.541048
79.906151 22.909557 -13.975344
80.094688 22.909557 -13.541048
79.784325 23.909557 -13.541048
79.906151 23.483837 -13.541048
80.495964 22.909557 -12.541048
79.906151 23.909557 -13.239580
80.168175 23.909557 -12.541048
79.527275 24.909557 -13.541048
79.372154 25.909557 -13.541048
79.906151 24.810345 -12.541048
79.685631 25.909557 -12.541048
80.906151 22.800655 -11.541048
80.541862 23.909557 -11.541048
80.906151 23.870342 -10.541048
81.249962 22.909557 -10.541048
80.224632 24.909557 -11.541048
79.906151 25.909557 -11.792772
79.986809 25.909557 -11.541048
80.561668 24.909557 -10.541048
80.284508 25.909557 -10.541048
79.354393 26.909557 -13.541048
79.534691 27.909557 -13.541048
79.624687 26.909557 -12.541048
79.742485 27.909557 -12.541048
79.906151 28.895489 -13.541048
79.906151 28.909557 -13.585634
