49.333366 9.104393 28.057318
48.922112 10.104393 28.906225
49.333366 10.104393 28.571905
48.333366 10.104393 29.385153
47.678154 10.104393 29.906225
49.333366 10.791725 28.906225
48.264885 11.104393 29.906225
49.333366 11.104393 29.061514
48.826897 12.104393 29.906225
49.333366 12.104393 29.523596
50.333366 11.104393 28.257101
49.531151 11.104393 28.906225
50.124565 12.104393 28.906225
50.333366 12.104393 28.739492
44.333366 5.104394 30.427450
43.802727 5.104394 30.906225
44.295464 6.104394 30.906225
45.333366 7.104393 30.429129
44.795860 7.104393 30.906225
45.324486 8.104393 30.906225
44.333366 7.104393 31.316610
43.651482 7.104393 31.906225
44.177513 8.104393 31.906225
44.333366 8.104393 31.769171
46.333366 8.104393 30.065039
44.333366 8.430550 31.906225
45.333366 9.104393 31.328451
44.665550 9.104393 31.906225
45.192375 10.104393 31.906225
45.846367 9.104393 30.906225
46.333366 9.104393 30.506872
46.333366 9.977577 30.906225
47.333366 10.104393 30.165503
46.399162 10.104393 30.906225
46.978691 11.104393 30.906225
47.333366 11.104393 30.632925
47.333366 11.685844 30.906225
45.333366 10.371483 31.906225
46.333366 11.104393 31.426016
45.737358 11.104393 31.906225
46.302147 12.104393 31.906225
47.333366 12.104393 31.083670
44.333366 9.104393 32.195564
43.532158 9.104393 32.906227
44.016747 10.104393 32.906227
44.333366 10.104393 32.632973
44.333366 10.766991 32.906227
45.333366 11.104393 32.231529
44.513481 11.104393 32.906227
45.070152 12.104393 32.906227
45.333366 12.104393 32.692772
44.333366 11.104393 33.056511
44.333366 12.104393 33.506813
43.844444 12.104393 33.906227
48.333366 12.104393 30.293173
47.563652 12.104393 30.906225
52.333366 10.104393 26.043997
52.002617 11.104393 26.906225
52.333366 11.104393 26.616278
52.333366 11.643822 26.906225
53.333366 12.104393 26.260046
52.585838 12.104393 26.906225
52.333366 12.104393 27.121405
42.333370 11.104393 34.677952
42.333370 11.639626 34.906223
43.333366 12.104393 34.291752
42.543484 12.104393 34.906223
59.662285 11.104393 18.906227
60.333366 12.104393 18.479134
60.059227 12.104393 18.906227
59.333366 13.104393 20.636131
59.144585 13.104393 20.906227
59.333366 13.564659 20.906227
58.333366 13.104393 21.954033
58.789421 14.104393 21.906227
59.333366 14.104393 21.190910
59.333366 15.104393 21.690254
59.174126 15.104393 21.906227
59.333366 15.530586 21.906227
55.333366 12.933662 24.906227
54.333366 13.104393 25.924337
54.954002 14.104393 25.906227
55.333366 14.104393 25.556664
55.333366 14.818336 25.906227
57.333366 12.796516 22.906227
56.333366 12.814232 23.906227
56.493828 13.104393 23.906227
57.333366 13.104393 23.065117
56.998680 14.104393 23.906227
57.333366 14.104393 23.551979
57.482384 13.104393 22.906227
58.333366 14.104393 22.455940
57.928734 14.104393 22.906227
57.333366 14.801689 23.906227
58.333366 15.104393 22.931938
58.771873 16.104393 22.906227
59.333366 16.104393 22.191185
57.476555 15.104393 23.906227
58.333366 16.104393 23.433372
57.930046 16.104393 23.906227
56.333366 13.104393 24.061378
55.439659 13.104393 24.906227
56.012596 14.104393 24.906227
56.333366 14.104393 24.586205
56.333366 14.742088 24.906227
56.517754 15.104393 24.906227
57.333366 15.104393 24.062920
57.333366 16.104393 24.556252
56.992088 16.104393 24.906227
56.333366 15.104393 25.087166
55.483574 15.104393 25.906227
55.963005 16.104393 25.906227
56.333366 16.104393 25.552467
59.333366 17.104393 22.723305
59.185631 17.104393 22.906227
59.333366 17.479042 22.906227
58.333366 17.095482 23.906227
58.333366 17.104393 23.910210
58.683739 18.104393 23.906227
59.333366 18.104393 23.162148
59.333366 19.104393 23.534523
59.014458 19.104393 23.906227
59.333366 20.013695 23.906227
57.333366 16.934395 24.906227
56.333366 17.104393 25.970556
57.333366 17.104393 24.976189
56.776115 18.104393 25.906227
57.333366 18.104393 25.340355
58.333366 18.104393 24.284492
57.745628 18.104393 24.906227
57.333366 19.104393 25.731834
57.162773 19.104393 25.906227
57.333366 19.500053 25.906227
58.333366 19.104393 24.660622
58.105125 19.104393 24.906227
58.333366 19.670891 24.906227
58.489372 20.104393 24.906227
59.333366 20.104393 23.942131
57.560722 20.104393 25.906227
58.333366 20.104393 25.076363
59.333366 21.104391 24.351677
58.839622 21.104391 24.906227
59.333366 22.104391 24.694496
59.147087 22.104391 24.906227
58.333366 21.104391 25.445641
57.892509 21.104391 25.906227
58.207268 22.104391 25.906227
59.333366 22.818151 24.906227
58.333366 22.531500 25.906227
58.499504 23.104391 25.906227
59.333366 23.104391 24.991447
59.333366 24.104391 25.243126
58.738365 24.104391 25.906227
59.333366 25.104391 25.470955
58.947716 25.104391 25.906227
59.333366 26.104391 25.698112
59.153984 26.104391 25.906227
59.333366 26.936392 25.906227
49.333366 12.955605 29.906225
50.333366 12.490181 28.906225
51.333366 13.104393 28.430151
50.713493 13.104393 28.906225
51.333366 14.050865 28.906225
50.333366 13.104393 29.206457
49.433128 13.104393 29.906225
50.070854 14.104393 29.906225
50.333366 14.104393 29.702032
50.333366 14.561028 29.906225
51.333366 15.104393 29.369574
50.642693 15.104393 29.906225
51.164330 16.104393 29.906225
51.333366 16.104393 29.779928
51.333366 16.426094 29.906225
46.866631 13.104393 31.906225
47.333366 13.104393 31.536383
47.333366 13.923637 31.906225
45.333366 12.584602 32.906227
44.333366 13.056465 33.906227
45.333366 13.104393 33.146904
44.360100 13.104393 33.906227
44.862663 14.104393 33.906227
45.333366 14.104393 33.558937
46.333366 13.104393 32.337975
45.636223 13.104393 32.906227
46.169762 14.104393 32.906227
46.333366 14.104393 32.775856
45.333366 15.104393 33.948200
46.333366 14.431831 32.906227
47.333366 15.104393 32.442421
46.715813 15.104393 32.906227
47.318321 16.104393 32.906227
46.333366 15.104393 33.202446
45.937370 16.104393 33.906227
46.333366 16.104393 33.619957
48.139519 13.104393 30.906225
48.333366 13.104393 30.751867
48.333366 13.423042 30.906225
49.333366 14.104393 30.459356
48.734856 14.104393 30.906225
48.333366 14.104393 31.212851
47.436699 14.104393 31.906225
49.333366 15.045570 30.906225
48.042625 15.104393 31.906225
48.333366 15.104393 31.685766
48.333366 15.563530 31.906225
49.333366 16.104393 31.365545
48.635399 16.104393 31.906225
50.333366 15.104393 30.153860
49.921104 16.104393 30.906225
50.333366 16.104393 30.570562
48.333366 16.104393 32.139107
46.333366 16.853371 33.906227
47.333366 17.104393 33.308907
46.333366 17.104393 34.006550
46.984917 18.104393 33.906227
47.333366 18.104393 33.670189
47.333366 18.846138 33.906227
49.145897 17.104393 31.906225
49.333366 17.104393 31.760778
49.333366 17.498466 31.906225
50.333366 16.950020 30.906225
51.333366 17.104393 30.185995
50.411858 17.104393 30.906225
50.901695 18.104393 30.906225
51.333366 18.104393 30.575674
50.333366 18.104393 31.354986
49.621910 18.104393 31.906225
51.333366 19.023033 30.906225
50.093285 19.104393 31.906225
50.333366 19.104393 31.721975
51.333366 19.104393 30.936651
50.333366 19.616356 31.906225
51.333366 20.104393 31.288809
50.536095 20.104393 31.906225
48.333366 17.104393 32.552330
47.885857 17.104393 32.906227
48.333366 18.091164 32.906227
49.333366 18.104393 32.125648
48.338829 18.104393 32.906227
48.769615 19.104393 32.906227
49.333366 19.104393 32.481544
49.190544 20.104393 32.906227
48.333366 19.104393 33.244453
47.333366 19.104393 33.989109
48.333366 20.104393 33.550591
47.861565 20.104393 33.906227
50.333366 20.104393 32.056221
53.213371 13.104393 26.906225
52.003380 13.104393 27.906225
52.333366 13.104393 27.639669
52.333366 13.600792 27.906225
53.333366 14.104393 27.336432
53.333366 13.279518 26.906225
52.642448 14.104393 27.906225
54.333366 14.104393 26.472036
53.842064 14.104393 26.906225
53.164421 15.104393 27.906225
53.333366 15.104393 27.769934
53.333366 15.426140 27.906225
54.333366 15.059929 26.906225
55.333366 15.104393 26.040670
54.355064 15.104393 26.906225
54.839775 16.104393 26.906225
55.333366 16.104393 26.475439
54.333366 16.104393 27.352926
53.677727 16.104393 27.906225
52.333366 14.104393 28.149984
51.928917 15.104393 28.906225
52.333366 15.104393 28.578634
52.333366 15.877495 28.906225
53.333366 16.104393 28.186026
52.333366 16.104393 28.993124
55.333366 17.093315 26.906225
54.194633 17.104393 27.906225
55.333366 17.104393 26.911200
54.333366 17.400475 27.906225
55.333366 18.104393 27.289663
54.628868 18.104393 27.906225
55.333366 19.104393 27.651846
55.042625 19.104393 27.906225
55.333366 19.802452 27.906225
52.972160 17.104393 28.906225
53.333366 17.104393 28.615789
53.333366 17.880302 28.906225
52.333366 17.104393 29.417562
51.711632 17.104393 29.906225
52.189995 18.104393 29.906225
53.333366 18.104393 28.981039
54.333366 18.104393 28.153784
52.333366 18.451164 29.906225
53.333366 19.104393 29.332907
52.618950 19.104393 29.906225
53.045280 20.104393 29.906225
53.333366 20.104393 29.679602
53.850456 19.104393 28.906225
54.333366 19.104393 28.502768
54.262932 20.104393 28.906225
55.333366 20.104393 28.000738
55.753197 18.104393 26.906225
56.333366 18.104393 26.348120
56.333366 19.104393 26.732946
56.154076 19.104393 26.906225
56.333366 19.532036 26.906225
57.333366 20.104393 26.134832
56.537682 20.104393 26.906225
56.333366 20.104393 27.096975
52.333366 19.104393 30.135489
51.821495 20.104393 30.906225
52.333366 20.104393 30.486746
50.961662 21.104391 31.906225
51.333366 21.104391 31.630911
51.333366 22.007132 31.906225
48.232567 21.104391 33.906227
49.333366 20.484732 32.906227
49.333366 21.104391 33.097725
48.333366 21.373877 33.906227
49.333366 22.104391 33.387474
48.595421 22.104391 33.906227
50.333366 21.104391 32.367027
49.599083 21.104391 32.906227
50.333366 22.104391 32.664680
50.004112 22.104391 32.906227
48.994865 23.104391 33.906227
49.333366 23.104391 33.681023
49.333366 23.866369 33.906227
50.333366 23.104391 32.962837
51.333366 23.104391 32.222328
50.803978 24.104391 32.906227
51.333366 24.104391 32.514610
50.333366 24.104391 33.261208
49.333366 24.104391 33.968403
51.139030 25.104391 32.906227
51.333366 25.104391 32.761971
51.333366 25.753454 32.906227
49.803429 25.104391 33.906227
50.333366 25.104391 33.519508
50.111717 26.104391 33.906227
50.333366 26.104391 33.739815
51.333366 26.104391 32.975090
50.333366 26.924093 33.906227
51.333366 27.104391 33.195229
50.385918 27.104391 33.906227
50.697136 28.104391 33.906227
51.333366 28.104391 33.440941
53.333366 20.789129 29.906225
54.333366 20.303732 28.906225
55.333366 21.104391 28.317495
54.648582 21.104391 28.906225
55.021507 22.104391 28.906225
55.333366 22.104391 28.630453
54.333366 21.104391 29.180578
53.333366 21.104391 30.020391
53.875969 22.104391 29.906225
54.333366 22.104391 29.513922
55.333366 23.029364 28.906225
54.217583 23.104391 29.906225
54.333366 23.448385 29.906225
55.333366 24.104391 29.227407
54.534630 24.104391 29.906225
56.870567 21.104391 26.906225
57.333366 21.104391 26.460546
57.189232 22.104391 26.906225
57.333366 22.104391 26.766928
55.796135 21.104391 27.906225
56.333366 21.104391 27.413076
56.130363 22.104391 27.906225
56.333366 22.104391 27.719061
57.333366 22.572393 26.906225
56.333366 22.741690 27.906225
57.333366 23.104391 27.065664
56.333366 23.104391 28.018179
56.765648 24.104391 27.906225
57.333366 24.104391 27.346350
58.333366 23.104391 26.079672
57.497063 23.104391 26.906225
57.770744 24.104391 26.906225
58.333366 24.104391 26.337164
55.702019 24.104391 28.906225
56.333366 24.104391 28.321829
54.853142 25.104391 29.906225
55.333366 25.104391 29.504080
55.127312 26.104391 29.906225
55.333366 26.104391 29.730017
55.333366 27.046392 29.906225
57.047844 25.104391 27.906225
57.333366 25.104391 27.616125
57.290092 26.104391 27.906225
58.015892 25.104391 26.906225
58.333366 25.104391 26.575003
58.247673 26.104391 26.906225
58.333366 26.505087 26.906225
58.333366 27.104391 27.044043
59.333366 28.104391 26.179586
58.666893 28.104391 26.906225
57.333366 26.311041 27.906225
57.490440 27.104391 27.906225
58.333366 28.104391 27.256414
57.689812 28.104391 27.906225
56.012627 25.104391 28.906225
56.333366 25.104391 28.604681
56.251274 26.104391 28.906225
56.333366 26.544088 28.906225
57.333366 27.104391 28.060431
56.333366 27.104391 29.005667
56.631889 28.104391 28.906225
57.333366 28.104391 28.248480
55.346184 27.104391 29.906225
55.553825 28.104391 29.906225
56.333366 28.104391 29.185980
52.261101 21.104391 30.906225
53.333366 22.104391 30.353277
52.658989 22.104391 30.906225
52.333366 22.104391 31.168890
53.022636 23.104391 30.906225
53.333366 23.104391 30.649527
53.333366 24.064932 30.906225
51.761986 23.104391 31.906225
52.333366 23.104391 31.464224
52.125847 24.104391 31.906225
52.333366 24.104391 31.741507
54.333366 24.104391 30.075613
52.333366 24.788580 31.906225
53.333366 25.104391 31.167791
52.333366 25.104391 31.981771
52.711967 26.104391 31.906225
53.333366 26.104391 31.411413
53.654839 25.104391 30.906225
54.333366 25.104391 30.341879
53.955254 26.104391 30.906225
54.333366 26.104391 30.587713
53.333366 27.104391 31.622076
52.976860 27.104391 31.906225
53.236473 28.104391 31.906225
54.194237 27.104391 30.906225
54.333366 27.722769 30.906225
55.333366 28.104391 30.098120
54.333366 28.104391 30.971670
52.333366 26.104391 32.199806
51.719872 27.104391 32.906227
52.333366 27.104391 32.419853
52.028831 28.104391 32.906227
52.333366 28.104391 32.655754
51.041954 29.104391 33.906227
51.333366 29.104391 33.695976
51.333366 30.087713 33.906227
59.333366 29.104391 26.392340
58.862785 29.104391 26.906225
59.333366 30.104391 26.541525
58.996788 30.104391 26.906225
58.333366 29.104391 27.468252
57.903923 29.104391 27.906225
58.333366 30.104391 27.616049
58.057243 30.104391 27.906225
59.078392 31.104391 26.906225
59.333366 31.104391 26.632025
59.333366 32.104389 26.734198
59.171928 32.104389 26.906225
58.333366 31.104391 27.710440
58.152122 31.104391 27.906225
58.236778 32.104389 27.906225
56.848747 29.104391 28.906225
57.333366 29.104391 28.454702
57.047691 30.104391 28.906225
57.333366 30.104391 28.631094
56.333366 29.104391 29.384756
55.768700 29.104391 29.906225
55.981377 30.104391 29.906225
56.333366 30.104391 29.580908
57.191490 31.104391 28.906225
57.333366 31.104391 28.762671
57.274467 32.104389 28.906225
56.156120 31.104391 29.906225
56.333366 31.104391 29.740072
56.258507 32.104389 29.906225
59.247246 33.104389 26.906225
58.293938 33.104389 27.906225
59.265221 34.104389 26.906225
58.328697 34.104389 27.906225
59.277977 35.104389 26.906225
58.333366 35.104389 27.963812
58.333366 36.104389 28.001028
59.295769 36.104389 26.906225
57.313805 33.104389 28.906225
56.317772 33.104389 29.906225
56.333366 33.310963 29.906225
57.333366 33.459232 28.906225
56.333366 34.104389 29.967337
57.333366 34.104389 28.946127
56.483269 35.104389 29.906225
57.333366 35.104389 29.029776
56.546684 36.104389 29.906225
57.333366 36.104389 29.075384
57.491417 36.104389 28.906225
54.629356 29.104391 30.906225
55.333366 29.104391 30.288961
54.842491 30.104391 30.906225
55.333366 30.104391 30.478735
53.333366 28.473700 31.906225
54.333366 29.104391 31.170996
53.500816 29.104391 31.906225
53.722008 30.104391 31.906225
54.333366 30.104391 31.361227
55.028404 31.104391 30.906225
55.333366 31.104391 30.641638
55.176750 32.104389 30.906225
55.333366 32.104389 30.766302
53.900780 31.104391 31.906225
54.333366 31.104391 31.523504
54.057854 32.104389 31.906225
54.333366 32.104389 31.662146
52.326622 29.104391 32.906227
53.333366 29.104391 32.050087
52.566734 30.104391 32.906227
53.333366 30.104391 32.243858
52.333366 30.104391 33.105034
51.337395 30.104391 33.906227
53.333366 31.104391 32.399605
52.748070 31.104391 32.906227
52.912468 32.104389 32.906227
53.333366 32.104389 32.539833
51.562523 31.104391 33.906227
52.333366 31.104391 33.265709
51.759453 32.104389 33.906227
52.333366 32.104389 33.413277
55.285423 33.104389 30.906225
54.188744 33.104389 31.906225
55.333366 33.585560 30.906225
55.333366 34.104389 30.952414
54.321159 34.104389 31.906225
55.333366 35.104389 31.057211
54.333366 35.104389 32.025078
54.571678 36.104389 31.906225
55.333366 36.104389 31.154715
53.064995 33.104389 32.906227
53.333366 33.104389 32.668785
53.228691 34.104389 32.906227
51.933464 33.104389 33.906227
52.333366 33.104389 33.554420
52.106468 34.104389 33.906227
52.333366 34.104389 33.704323
52.273796 35.104389 33.906227
53.333366 34.742313 32.906227
53.333366 35.104389 32.959343
52.333366 35.495014 33.906227
53.333366 36.104389 33.073936
52.333366 36.104389 33.976566
53.512016 36.104389 32.906227
54.333366 36.104389 32.132042
55.486900 35.104389 30.906225
56.333366 35.104389 30.059088
55.581261 36.104389 30.906225
56.333366 36.104389 30.131536
58.333366 37.104389 27.999716
59.298882 37.104389 26.906225
58.333366 38.104389 28.011908
59.294365 38.104389 26.906225
59.287407 39.104389 26.906225
58.333366 39.104389 28.012396
59.259239 40.104389 26.906225
58.333366 40.104389 27.976477
56.577965 37.104389 29.906225
57.333366 37.104389 29.094046
57.333366 38.104389 29.125296
56.605858 38.104389 29.906225
57.505272 37.104389 28.906225
57.530907 38.104389 28.906225
56.607079 39.104389 29.906225
57.333366 39.104389 29.122534
56.576286 40.104389 29.906225
57.333366 40.104389 29.078390
57.528679 39.104389 28.906225
57.490105 40.104389 28.906225
59.333366 41.104389 26.738104
59.192436 41.104389 26.906225
59.104759 42.104389 26.906225
59.333366 42.104389 26.628332
58.333366 41.256290 27.906225
58.272057 42.104389 27.906225
59.008110 43.104389 26.906225
59.333366 43.104389 26.504080
58.904686 44.104389 26.906225
59.333366 44.104389 26.356955
58.333366 43.104389 27.725271
58.186943 43.104389 27.906225
58.105003 44.104389 27.906225
58.333366 44.104389 27.616232
56.560722 41.104389 29.906225
57.333366 41.104389 29.041586
56.546165 42.104389 29.906225
57.333366 42.104389 28.998739
56.503197 43.104389 29.906225
57.333366 43.104389 28.931036
57.333366 43.433567 28.906225
56.333366 44.104389 30.044744
57.294182 44.104389 28.906225
54.653435 37.104389 31.906225
55.333366 37.104389 31.215429
54.704948 38.104389 31.906225
55.333366 38.104389 31.251822
54.735649 39.104389 31.906225
55.333366 39.104389 31.274084
54.749260 40.104389 31.906225
55.333366 40.104389 31.274282
52.544731 37.104389 33.906227
53.333366 37.104389 33.177254
52.644463 38.104389 33.906227
53.333366 38.104389 33.256599
53.618187 37.104389 32.906227
54.333366 37.104389 32.218620
53.696159 38.104389 32.906227
54.333366 38.104389 32.278679
52.700615 39.104389 33.906227
53.333366 39.104389 33.304893
52.745293 40.104389 33.906227
53.333366 40.104389 33.341042
53.741600 39.104389 32.906227
54.333366 39.104389 32.315361
53.772057 40.104389 32.906227
54.333366 40.104389 32.338326
55.632561 37.104389 30.906225
56.333366 37.104389 30.168783
55.661461 38.104389 30.906225
56.333366 38.104389 30.196875
55.677086 39.104389 30.906225
56.333366 39.104389 30.201666
55.669701 40.104389 30.906225
56.333366 40.104389 30.175451
54.748192 41.104389 31.906225
55.333366 41.104389 31.272268
54.744530 42.104389 31.906225
55.333366 42.104389 31.269049
54.727257 43.104389 31.906225
55.333366 43.104389 31.236959
54.693413 44.104389 31.906225
55.333366 44.104389 31.186850
52.767418 41.104389 33.906227
53.333366 41.104389 33.351814
52.770531 42.104389 33.906227
53.333366 42.104389 33.348686
53.774864 41.104389 32.906227
54.333366 41.104389 32.337410
53.768608 42.104389 32.906227
54.333366 42.104389 32.330849
52.788200 43.104389 33.906227
53.333366 43.104389 33.355904
52.807274 44.104389 33.906227
53.333366 44.104389 33.359337
53.769157 43.104389 32.906227
54.333366 43.104389 32.321663
53.761864 44.104389 32.906227
54.333366 44.104389 32.297478
55.667564 41.104389 30.906225
56.333366 41.104389 30.165167
55.664177 42.104389 30.906225
56.333366 42.104389 30.153616
55.628654 43.104389 30.906225
56.333366 43.104389 30.104300
55.579674 44.104389 30.906225
43.054348 13.104393 34.906223
43.333366 13.104393 34.697910
43.333366 13.614830 34.906223
42.333370 13.104393 35.461262
42.265743 14.104393 35.906223
43.333366 14.104393 35.094685
42.754635 15.104393 35.906223
43.333366 15.104393 35.476170
43.228756 16.104393 35.906223
42.333370 16.104393 36.563007
42.333370 17.043449 36.906223
43.333366 17.104393 36.202885
43.333366 16.322716 35.906223
42.367092 17.104393 36.906223
42.855404 18.104393 36.906223
43.333366 18.104393 36.562534
43.333126 19.104393 36.906223
42.333370 19.104393 37.643803
42.333370 19.979073 37.906223
43.333366 20.104393 37.224247
42.375759 20.104393 37.906223
42.743954 21.104391 37.906223
43.333366 21.104391 37.514072
43.143703 22.104391 37.906223
43.333366 22.104391 37.787495
43.333366 22.574392 37.906223
42.333370 22.104391 38.453388
42.333370 23.104391 38.719822
43.333366 23.104391 38.045322
42.333370 23.797155 38.906223
43.333366 24.104391 38.296772
42.333370 24.104391 38.979298
42.799587 25.104391 38.906223
43.333366 25.104391 38.547245
43.168850 26.104391 38.906223
42.333370 26.104391 39.483158
42.333370 27.104391 39.722218
43.333366 26.549032 38.906223
43.333366 27.104391 39.054096
42.333370 27.828543 39.906223
43.333366 28.104391 39.316334
42.333370 28.104391 39.971439
44.333366 14.104393 34.313175
43.581505 14.104393 34.906223
44.080894 15.104393 34.906223
44.333366 15.104393 34.704639
44.333366 15.610451 34.906223
45.333366 16.104393 34.327366
44.557732 16.104393 34.906223
44.333366 16.104393 35.078632
45.074699 17.104393 34.906223
45.333366 17.104393 34.716892
45.333366 17.583092 34.906223
44.333366 17.104393 35.463566
43.741081 17.104393 35.906223
44.228325 18.104393 35.906223
45.333366 18.104393 35.094028
46.333366 18.104393 34.374561
45.602409 18.104393 34.906223
44.333366 18.323494 35.906223
45.333366 19.104393 35.466236
44.719292 19.104393 35.906223
45.177086 20.104393 35.906223
46.101677 19.104393 34.906223
46.333366 19.104393 34.730183
46.333366 19.609398 34.906223
47.333366 20.104393 34.286671
46.513237 20.104393 34.906223
46.333366 20.104393 35.048313
44.333366 19.104393 36.180668
43.788353 20.104393 36.906223
44.333366 20.104393 36.510700
46.901482 21.104391 34.906223
47.333366 21.104391 34.582005
47.289787 22.104391 34.906223
45.333366 20.494085 35.906223
46.333366 21.104391 35.348820
45.593925 21.104391 35.906223
46.012596 22.104391 35.906223
46.333366 22.104391 35.658024
46.333366 22.976614 35.906223
47.333366 23.104391 35.162388
46.377586 23.104391 35.906223
46.726952 24.104391 35.906223
47.333366 24.104391 35.456806
44.209068 21.104391 36.906223
45.333366 21.104391 36.093388
44.333366 21.387564 36.906223
45.333366 22.104391 36.410786
44.633659 22.104391 36.906223
44.333366 22.104391 37.115482
45.017632 23.104391 36.906223
45.333366 23.104391 36.686787
45.333366 24.020987 36.906223
44.333366 23.104391 37.386906
43.559441 23.104391 37.906223
43.936394 24.104391 37.906223
44.333366 24.104391 37.630512
46.333366 24.104391 36.198948
48.333366 22.104391 34.100483
47.675499 23.104391 34.906223
48.333366 23.104391 34.390659
48.070183 24.104391 34.906223
48.333366 24.104391 34.698704
47.108574 25.104391 35.906223
47.333366 25.104391 35.743275
47.333366 25.706945 35.906223
44.284569 25.104391 37.906223
45.333366 25.104391 37.188435
44.633781 26.104391 37.906223
45.333366 26.104391 37.442554
45.744072 25.104391 36.906223
46.333366 25.104391 36.477863
46.098869 26.104391 36.906223
46.333366 26.104391 36.734013
47.333366 26.104391 36.001438
45.000053 27.104391 37.906223
45.333366 27.104391 37.688160
45.333366 27.985678 37.906223
46.333366 26.848761 36.906223
47.333366 27.104391 36.242023
46.333366 27.104391 36.972904
47.333366 28.104391 36.489246
46.762566 28.104391 36.906223
46.333366 28.104391 37.227039
45.373375 28.104391 37.906223
48.333366 24.836020 34.906223
49.333366 25.104391 34.233768
48.333366 25.104391 34.986958
48.775993 26.104391 34.906223
49.333366 26.104391 34.480518
48.333366 26.104391 35.250126
49.084068 27.104391 34.906223
49.333366 27.104391 34.712269
49.333366 27.891821 34.906223
47.792412 27.104391 35.906223
48.333366 27.104391 35.494663
48.103874 28.104391 35.906223
48.333366 28.104391 35.729954
49.333366 28.104391 34.954426
50.333366 28.104391 34.186268
44.333366 26.104391 38.111530
44.333366 27.104391 38.367771
43.561760 27.104391 38.906223
43.949669 28.104391 38.906223
44.333366 28.104391 38.629093
42.825863 29.104391 39.906223
43.333366 29.104391 39.579136
43.194088 30.104391 39.906223
42.333370 30.104391 40.453876
42.333370 31.104391 40.684834
43.333366 30.494513 39.906223
43.333366 31.104391 40.042301
43.333366 32.104389 40.244923
43.333366 33.104389 40.448124
43.333366 34.104389 40.657383
43.256893 35.104389 40.906223
43.333366 35.317127 40.906223
43.333366 37.104389 41.261112
43.333366 38.104389 41.474964
43.333366 39.104389 41.678928
43.245754 40.104389 41.906223
43.333366 40.398319 41.906223
47.103966 29.104391 36.906223
47.333366 29.104391 36.738560
47.333366 29.806005 36.906223
45.726494 29.104391 37.906223
46.333366 29.104391 37.476215
46.049492 30.104391 37.906223
46.333366 30.104391 37.702930
47.333366 30.104391 36.966190
46.333366 31.104391 37.908817
47.333366 31.104391 37.155811
46.610863 32.104389 37.906223
47.333366 32.104389 37.361073
48.333366 28.854910 35.906223
49.333366 29.104391 35.202579
48.333366 29.104391 35.968616
48.708183 30.104391 35.906223
49.333366 30.104391 35.426533
49.733208 29.104391 34.906223
50.333366 29.104391 34.445545
50.020653 30.104391 34.906223
50.333366 30.104391 34.664692
48.963280 31.104391 35.906223
49.333366 31.104391 35.627888
49.217278 32.104389 35.906223
50.271233 31.104391 34.906223
51.333366 31.104391 34.077641
50.333366 31.340094 34.906223
51.333366 32.104389 34.242435
50.500603 32.104389 34.906223
50.333366 32.104389 35.043842
48.333366 30.104391 36.194874
47.668205 31.104391 36.906223
48.333366 31.104391 36.388737
47.927879 32.104389 36.906223
48.333366 32.104389 36.585011
46.893669 33.104389 37.906223
47.333366 33.104389 37.581394
47.136070 34.104389 37.906223
47.333366 34.104389 37.762974
47.333366 34.889454 37.906223
50.705254 33.104389 34.906223
51.333366 33.104389 34.398884
50.911186 34.104389 34.906223
51.333366 34.104389 34.559650
49.333366 32.588200 35.906223
50.333366 33.104389 35.213261
49.333366 33.104389 36.001423
49.686363 34.104389 35.906223
50.333366 34.104389 35.386677
51.108269 35.104389 34.906223
51.333366 35.104389 34.718464
51.273216 36.104389 34.906223
49.899040 35.104389 35.906223
50.333366 35.104389 35.555058
50.075920 36.104389 35.906223
50.333366 36.104389 35.695683
48.195518 33.104389 36.906223
48.333366 33.683582 36.906223
49.333366 34.104389 36.180836
48.333366 34.104389 36.978672
48.646629 35.104389 36.906223
49.333366 35.104389 36.354816
48.867119 36.104389 36.906223
49.333366 36.104389 36.516438
48.333366 35.104389 37.164356
47.333366 35.104389 37.951008
47.677361 36.104389 37.906223
48.333366 36.104389 37.363041
44.304405 29.104391 38.906223
45.333366 29.104391 38.167088
44.631981 30.104391 38.906223
45.333366 30.104391 38.403858
44.333366 30.104391 39.127552
45.333366 31.104391 38.644444
44.967430 31.104391 38.906223
45.269463 32.104389 38.906223
44.333366 31.104391 39.366474
43.549461 31.104391 39.906223
43.856895 32.104389 39.906223
44.333366 32.104389 39.576756
46.333366 32.104389 38.115726
44.152489 33.104389 39.906223
44.333366 33.104389 39.781590
45.333366 32.337574 38.906223
45.333366 33.104389 39.069798
44.333366 33.710529 39.906223
45.333366 34.104389 39.273350
44.333366 34.104389 39.983906
46.333366 33.104389 38.328251
45.562065 33.104389 38.906223
45.835594 34.104389 38.906223
46.333366 34.104389 38.523075
44.716454 35.104389 39.906223
45.333366 35.104389 39.461964
45.007835 36.104389 39.906223
45.333366 36.104389 39.672520
46.087456 35.104389 38.906223
46.333366 35.104389 38.716175
46.333366 35.990528 38.906223
47.333366 36.104389 38.163822
46.361015 36.104389 38.906223
44.333366 35.104389 40.175831
44.333366 36.104389 40.386738
43.579094 36.104389 40.906223
50.262749 37.104389 35.906223
51.333366 36.475971 34.906223
51.333366 37.104389 35.000446
50.333366 37.485722 35.906223
51.333366 38.104389 35.118351
50.333366 38.104389 35.987782
50.542290 39.104389 35.906223
51.333366 39.104389 35.188847
50.637444 40.104389 35.906223
51.333366 40.104389 35.260166
49.071434 37.104389 36.906223
49.333366 37.104389 36.683537
49.256523 38.104389 36.906223
47.900841 37.104389 37.906223
48.333366 37.104389 37.540531
48.099693 38.104389 37.906223
48.333366 38.104389 37.705097
48.289299 39.104389 37.906223
49.333366 38.565922 36.906223
49.333366 39.104389 36.981556
48.333366 39.382969 37.906223
49.333366 40.104389 37.087589
48.333366 40.104389 37.980427
50.333366 39.104389 36.092060
49.533958 40.104389 36.906223
50.333366 40.104389 36.181583
50.688194 41.104389 35.906223
51.333366 41.104389 35.303501
50.717461 42.104389 35.906223
51.333366 42.104389 35.323872
50.768944 43.104389 35.906223
51.333366 43.104389 35.366825
50.842857 44.104389 35.906223
51.333366 44.104389 35.418980
48.333366 41.104389 38.025639
49.333366 41.104389 37.121983
48.500084 42.104389 37.906223
49.333366 42.104389 37.142963
49.573296 41.104389 36.906223
50.333366 41.104389 36.224201
50.333366 42.104389 36.248951
49.597282 42.104389 36.906223
48.600426 43.104389 37.906223
49.333366 43.104389 37.213017
48.779350 44.104389 37.906223
49.333366 44.104389 37.358768
49.665459 43.104389 36.906223
50.333366 43.104389 36.301044
49.798698 44.104389 36.906223
50.333366 44.104389 36.396854
45.305595 37.104389 39.906223
46.616966 37.104389 38.906223
47.333366 37.104389 38.351582
46.858513 38.104389 38.906223
47.333366 38.104389 38.533283
46.333366 37.104389 39.130527
45.578728 38.104389 39.906223
46.333366 38.104389 39.326099
47.092430 39.104389 38.906223
47.333366 39.104389 38.712849
47.269096 40.104389 38.906223
45.844810 39.104389 39.906223
46.333366 39.104389 39.522999
46.077721 40.104389 39.906223
46.333366 40.104389 39.698490
43.896507 37.104389 40.906223
44.333366 37.104389 40.600147
44.196648 38.104389 40.906223
45.333366 38.104389 40.083576
44.333366 38.607502 40.906223
45.333366 39.104389 40.286945
44.333366 39.104389 41.009892
44.737846 40.104389 40.906223
45.333366 40.104389 40.477009
44.333366 40.104389 41.196369
46.278648 41.104389 39.906223
47.333366 40.635197 38.906223
47.333366 41.104389 38.954624
46.333366 41.386524 39.906223
47.333366 42.104389 39.059315
46.333366 42.104389 40.023930
46.640862 43.104389 39.906223
47.333366 43.104389 39.204014
46.834251 44.104389 39.906223
47.333366 44.104389 39.399845
45.002098 41.104389 40.906223
45.333366 41.104389 40.664677
45.279839 42.104389 40.906223
44.333366 41.104389 41.393070
43.578911 41.104389 41.906223
43.907707 42.104389 41.906223
44.333366 42.104389 41.607197
44.177574 43.104389 41.906223
45.333366 42.326435 40.906223
45.333366 43.104389 41.052982
45.333366 44.104389 41.231129
44.333366 43.724934 41.906223
44.333366 44.104389 41.963367
46.333366 43.104389 40.194294
45.515709 43.104389 40.906223
45.731651 44.104389 40.906223
46.333366 44.104389 40.376987
47.487144 42.104389 38.906223
48.333366 42.104389 38.067280
47.620934 43.104389 38.906223
48.333366 43.104389 38.174168
48.333366 44.104389 38.364429
47.811699 44.104389 38.906223
52.333366 37.104389 34.100803
51.570580 38.104389 34.906223
52.333366 38.104389 34.199039
51.641624 39.104389 34.906223
52.333366 39.104389 34.254978
51.709465 40.104389 34.906223
52.333366 40.104389 34.305744
51.750145 41.104389 34.906223
52.333366 41.104389 34.334797
51.764732 42.104389 34.906223
52.333366 42.104389 34.342228
51.801933 43.104389 34.906223
52.333366 43.104389 34.371174
51.841972 44.104389 34.906223
52.333366 44.104389 34.402561
59.333366 46.300236 25.906227
59.333366 47.104389 25.705406
59.211906 47.104389 25.906227
59.071373 48.104389 25.906227
59.333366 48.104389 25.462776
58.927208 49.104389 25.906227
59.333366 49.104389 25.207237
58.763847 50.104389 25.906227
59.340355 50.104389 24.906227
59.333366 51.104389 24.571800
59.148338 51.104389 24.906227
58.919609 52.104389 24.906227
59.333366 52.104389 24.127251
58.565727 51.104389 25.906227
58.333366 52.143604 25.906227
59.333366 55.104389 21.976585
59.333366 56.104389 21.016975
58.936516 56.104389 21.906227
59.333366 57.104389 19.972084
59.333366 58.104389 18.928261
58.928825 58.104389 19.906227
59.333366 58.130207 18.906227
58.970604 59.104389 18.906227
58.629295 60.104385 18.906227
58.527733 59.104389 19.906227
58.333366 59.631672 19.906227
58.333366 60.104385 19.580315
58.201439 60.104385 19.906227
59.333366 56.231739 20.906227
58.932152 57.104389 20.906227
58.477348 58.104389 20.906227
58.465508 57.104389 21.906227
58.333366 57.375935 21.906227
58.333366 58.104389 21.204033
58.023064 58.104389 21.906227
58.333366 58.469151 20.906227
58.333366 59.104389 20.358391
58.083580 59.104389 20.906227
57.764702 60.104385 20.906227
57.631096 59.104389 21.906227
57.333366 60.041172 21.906227
59.333366 52.530445 23.906227
59.333366 53.104389 23.530846
59.158653 53.104389 23.906227
58.809685 54.104389 23.906227
59.333366 53.996738 22.906227
58.906059 55.104389 22.906227
58.464378 56.104389 22.906227
58.333366 55.268635 23.906227
58.333366 56.104389 23.168922
57.980247 56.104389 23.906227
58.633751 53.104389 24.906227
58.333366 53.956791 24.906227
58.333366 53.104389 25.427742
58.072655 53.104389 25.906227
57.729424 54.104389 25.906227
57.333366 55.166035 25.906227
57.333366 56.104389 25.172295
56.946770 56.104389 25.906227
58.333366 55.104389 24.055946
57.893547 55.104389 24.906227
57.473808 56.104389 24.906227
57.333366 57.506947 23.906227
57.333366 58.104389 23.368690
57.070885 58.104389 23.906227
58.333366 56.407658 22.906227
58.333366 57.104389 22.212914
58.005333 57.104389 22.906227
57.556053 58.104389 22.906227
57.520348 57.104389 23.906227
57.333366 58.662617 22.906227
57.333366 59.104389 22.565178
57.167717 59.104389 22.906227
56.841148 60.104385 22.906227
56.660423 59.104389 23.906227
56.333366 60.069065 23.906227
57.333366 56.432056 24.906227
57.333366 57.104389 24.290123
57.020897 57.104389 24.906227
56.554680 58.104389 24.906227
56.486320 57.104389 25.906227
56.333366 57.423756 25.906227
56.333366 58.104389 25.317101
56.031395 58.104389 25.906227
56.333366 58.642826 24.906227
56.333366 59.104389 24.552086
56.143669 59.104389 24.906227
55.796165 60.104385 24.906227
55.611443 59.104389 25.906227
55.333366 59.870686 25.906227
55.264854 60.104385 25.906227
58.783836 45.104389 26.906225
59.333366 45.104389 26.173315
58.650932 46.104389 26.906225
59.333366 46.104389 25.950583
58.012627 45.104389 27.906225
58.333366 45.104389 27.485739
57.912346 46.104389 27.906225
58.333366 46.104389 27.331976
58.525444 47.104389 26.906225
58.333366 48.104389 27.006887
57.813835 47.104389 27.906225
58.333366 47.104389 27.173956
57.707970 48.104389 27.906225
57.226128 45.104389 28.906225
57.333366 46.104389 28.670813
57.151451 46.104389 28.906225
56.333366 45.104389 29.980185
56.333366 46.136112 29.906225
57.075859 47.104389 28.906225
57.333366 47.104389 28.563452
56.991844 48.104389 28.906225
57.333366 48.104389 28.438513
56.286217 47.104389 29.906225
56.234428 48.104389 29.906225
58.333366 48.699024 26.906225
58.276176 49.104389 26.906225
58.333366 50.104389 26.606161
58.130180 50.104389 26.906225
57.593590 49.104389 27.906225
57.463219 50.104389 27.906225
57.333366 50.916294 27.906225
57.333366 52.104389 27.554113
57.119682 52.104389 27.906225
57.945976 51.104389 26.906225
58.333366 51.104389 26.306768
57.734459 52.104389 26.906225
56.898735 49.104389 28.906225
57.333366 49.104389 28.291082
56.785484 50.104389 28.906225
57.333366 50.104389 28.104910
56.333366 49.104389 29.667822
56.158165 49.104389 29.906225
56.058006 50.104389 29.906225
56.333366 50.104389 29.525366
56.641930 51.104389 28.906225
56.479942 52.104389 28.906225
55.943779 51.104389 29.906225
56.333366 51.104389 29.345999
55.806999 52.104389 29.906225
56.333366 52.104389 29.122244
54.665062 45.104389 31.906225
55.333366 45.104389 31.138159
54.638359 46.104389 31.906225
55.333366 46.104389 31.089880
54.613914 47.104389 31.906225
55.333366 47.104389 31.056479
54.599571 48.104389 31.906225
55.333366 48.104389 31.022085
52.825676 45.104389 33.906227
53.333366 45.104389 33.364388
52.860161 46.104389 33.906227
53.333366 46.104389 33.381386
53.758080 45.104389 32.906227
54.333366 45.104389 32.277031
53.757530 46.104389 32.906227
54.333366 46.104389 32.256279
52.900078 47.104389 33.906227
53.333366 47.104389 33.398415
52.942284 48.104389 33.906227
53.333366 48.104389 33.427269
53.752708 47.104389 32.906227
54.333366 47.104389 32.232979
53.762749 48.104389 32.906227
54.333366 48.104389 32.225533
55.533287 45.104389 30.906225
55.488976 46.104389 30.906225
54.564659 49.104389 31.906225
55.333366 49.104389 30.947363
55.333366 49.517826 30.906225
54.510887 50.104389 31.906225
55.288231 50.104389 30.906225
55.212639 51.104389 30.906225
55.333366 52.104389 30.601858
55.110924 52.104389 30.906225
54.459038 51.104389 31.906225
54.333366 52.104389 31.970907
52.971123 49.104389 33.906227
53.333366 49.104389 33.444756
52.986931 50.104389 33.906227
53.333366 50.104389 33.443840
53.762169 49.104389 32.906227
54.333366 49.104389 32.197441
53.742149 50.104389 32.906227
54.333366 50.104389 32.139595
52.985069 51.104389 33.906227
53.333366 51.104389 33.430000
52.937370 52.104389 33.906227
53.333366 52.104389 33.358162
53.717949 51.104389 32.906227
54.333366 51.104389 32.077141
53.657951 52.104389 32.906227
51.333366 58.662266 33.906227
51.333366 59.104389 33.565819
51.146233 59.104389 33.906227
50.722893 60.104385 33.906227
51.333366 60.029484 32.906227
55.333366 54.227909 29.906225
55.333366 55.104389 29.416662
55.060875 55.104389 29.906225
54.677025 56.104389 29.906225
55.333366 55.884754 28.906225
55.250603 56.104389 28.906225
57.333366 53.565617 26.906225
57.333366 54.104389 26.607809
57.155937 54.104389 26.906225
56.882195 53.104389 27.906225
57.333366 53.104389 27.148718
56.564384 54.104389 27.906225
57.478813 53.104389 26.906225
56.795830 55.104389 26.906225
56.333366 56.229206 26.906225
56.333366 54.800724 27.906225
56.333366 55.104389 27.695150
56.217491 55.104389 27.906225
55.812187 56.104389 27.906225
56.333366 52.848820 28.906225
56.267082 53.104389 28.906225
56.333366 54.104389 28.312994
55.971947 54.104389 28.906225
55.615776 53.104389 29.906225
55.632927 55.104389 28.906225
55.333366 57.198368 27.906225
55.333366 58.104389 27.173239
54.939232 58.104389 27.906225
55.333366 58.477665 26.906225
55.333366 59.104389 26.443472
55.070549 59.104389 26.906225
54.696526 60.104385 26.906225
54.492821 59.104389 27.906225
54.333366 59.469196 27.906225
54.333366 60.104385 27.506887
54.106346 60.104385 27.906225
55.333366 57.104389 27.991217
54.820518 57.104389 28.906225
54.333366 58.186893 28.906225
54.333366 56.933872 29.906225
53.820946 58.104389 29.906225
53.333366 59.221851 29.906225
53.333366 60.104385 29.252081
52.986565 60.104385 29.906225
54.333366 59.104389 28.194601
53.925407 59.104389 28.906225
53.526360 60.104385 28.906225
56.333366 57.104389 26.204000
55.931877 57.104389 26.906225
55.484642 58.104389 26.906225
54.954674 53.104389 30.906225
55.333366 53.104389 30.354971
54.736015 54.104389 30.906225
54.333366 52.554401 31.906225
54.256554 53.104389 31.906225
54.333366 54.104389 31.510580
54.076836 54.104389 31.906225
54.448235 55.104389 30.906225
54.333366 55.425709 30.906225
54.333366 56.104389 30.510794
54.093773 56.104389 30.906225
53.823814 55.104389 31.906225
54.333366 55.104389 31.087118
53.503075 56.104389 31.906225
52.857384 53.104389 33.906227
53.333366 53.104389 33.229805
52.714226 54.104389 33.906227
53.333366 54.104389 33.010155
53.557762 53.104389 32.906227
53.333366 54.453373 32.906227
53.333366 55.104389 32.673759
53.182793 55.104389 32.906227
52.895653 56.104389 32.906227
53.333366 56.104389 32.195869
52.501030 55.104389 33.906227
52.333366 55.753269 33.906227
52.239494 56.104389 33.906227
53.333366 56.594532 31.906225
53.333366 57.104389 31.554113
53.139061 57.104389 31.906225
52.738304 58.104389 31.906225
53.333366 57.992542 30.906225
53.694695 57.104389 30.906225
52.858604 59.104389 30.906225
52.434410 60.104385 30.906225
52.333366 59.041660 31.906225
52.333366 60.104385 31.080618
51.870750 60.104385 31.906225
52.540672 57.104389 32.906227
52.333366 57.633762 32.906227
52.333366 58.104389 32.614098
52.153496 58.104389 32.906227
52.333366 57.104389 33.227211
51.906639 57.104389 33.906227
51.541557 58.104389 33.906227
51.722130 59.104389 32.906227
58.333366 61.104385 19.047997
58.333366 61.467453 18.906227
58.280205 62.104385 18.906227
57.988487 61.104385 19.906227
57.872368 62.104385 19.906227
58.310265 63.104385 18.906227
58.565239 64.104385 18.906227
57.883598 63.104385 19.906227
58.333366 64.104385 19.358025
58.078117 64.104385 19.906227
57.333366 61.104385 21.374672
57.090569 61.104385 21.906227
56.957939 62.104385 21.906227
57.333366 62.104385 21.107475
57.549126 61.104385 20.906227
57.428246 62.104385 20.906227
56.928368 63.104385 21.906227
57.333366 63.104385 21.084938
57.333366 64.104385 21.343513
57.029350 64.104385 21.906227
57.573601 64.104385 20.906227
59.333366 65.104385 18.471992
59.079460 65.104385 18.906227
59.333366 65.474472 18.906227
58.333366 64.851990 19.906227
58.465080 65.104385 19.906227
59.333366 66.104385 19.526588
59.041740 66.104385 19.906227
59.333366 66.545197 19.906227
57.263390 65.104385 21.906227
57.883690 65.104385 20.906227
58.333366 65.104385 20.126564
58.287285 66.104385 20.906227
57.333366 65.345917 21.906227
57.572044 66.104385 21.906227
58.795860 67.104385 20.906227
59.333366 67.104385 20.353706
59.333366 67.866165 20.906227
58.333366 67.104385 21.404427
57.917015 67.104385 21.906227
58.333366 68.019272 21.906227
59.333366 68.104385 21.079109
58.381096 68.104385 21.906227
55.333366 61.104385 25.258614
54.982933 61.104385 25.906227
54.759148 62.104385 25.906227
55.333366 62.104385 24.921043
55.333366 62.163239 24.906227
55.245842 63.104385 24.906227
54.646629 63.104385 25.906227
54.682304 64.104385 25.906227
55.272636 64.104385 24.906227
56.592369 61.104385 22.906227
56.442314 62.104385 22.906227
56.333366 61.104385 23.387962
56.066429 61.104385 23.906227
55.893852 62.104385 23.906227
56.333366 62.104385 23.098763
56.333366 63.104385 22.979454
56.333366 64.104385 23.059837
55.805565 63.104385 23.906227
55.835289 64.104385 23.906227
55.528923 61.104385 24.906227
55.333366 64.804001 24.906227
54.741631 65.104385 25.906227
55.333366 65.104385 24.956291
55.333366 66.104385 25.085289
54.771538 66.104385 25.906227
55.333366 67.104385 25.197456
54.815910 67.104385 25.906227
55.333366 68.104385 25.310814
54.871513 68.104385 25.906227
56.610069 65.104385 22.906227
57.333366 66.104385 22.234978
56.845573 66.104385 22.906227
56.333366 65.104385 23.320229
55.970207 65.104385 23.906227
56.333366 66.104385 23.617088
56.137596 66.104385 23.906227
57.333366 67.104385 22.604561
57.089775 67.104385 22.906227
57.333366 67.984039 22.906227
56.300316 67.104385 23.906227
56.485466 68.104385 23.906227
55.457207 66.104385 24.906227
55.550529 67.104385 24.906227
55.658684 68.104385 24.906227
56.333366 68.104385 24.088173
59.248222 69.104385 21.906227
55.333366 69.104385 25.499214
54.999687 69.104385 25.906227
55.278648 70.104385 25.906227
57.333366 69.104385 23.310326
56.746849 69.104385 23.906227
57.333366 70.184555 23.906227
58.333366 69.104385 22.492638
57.812737 69.104385 22.906227
58.333366 69.748291 22.906227
58.758385 70.104385 22.906227
59.333366 70.104385 22.612465
58.333366 70.104385 23.161476
59.333366 70.538773 22.906227
58.333366 71.057968 23.906227
59.333366 71.104385 23.269341
58.379295 71.104385 23.906227
59.151543 72.104385 23.906227
59.333366 72.104385 23.774818
56.333366 69.104385 24.353081
55.847404 69.104385 24.906227
56.216759 70.104385 24.906227
56.333366 70.319611 24.906227
57.029961 71.104385 24.906227
57.333366 71.104385 24.666313
57.333366 71.411621 24.906227
55.910515 71.104385 25.906227
56.333366 71.104385 25.499168
56.333366 71.630768 25.906227
57.333366 72.104385 25.316811
56.634239 72.104385 25.906227
58.333366 72.104385 24.518990
57.846672 72.104385 24.906227
59.333366 72.399353 23.906227
57.238487 73.104385 25.906227
58.333366 72.897110 24.906227
59.333366 73.104385 24.226021
58.333366 73.104385 25.009377
59.067131 74.104385 24.906227
59.333366 74.104385 24.696098
58.333366 74.104385 25.504402
57.840263 74.104385 25.906227
59.333366 74.588898 24.906227
58.333366 74.930344 25.906227
59.333366 75.104385 25.162743
58.447624 75.104385 25.906227
51.333366 61.470261 31.906225
51.333366 62.104385 31.532888
51.120598 62.104385 31.906225
50.815331 63.104385 31.906225
51.333366 63.104385 31.081366
51.333366 63.615372 30.906225
50.559929 64.104385 31.906225
51.249290 64.104385 30.906225
51.333366 61.104385 32.168922
50.902306 61.104385 32.906227
50.501579 62.104385 32.906227
50.333366 61.035934 33.906227
50.333366 62.104385 33.170311
49.893181 62.104385 33.906227
49.333366 63.669479 33.906227
49.333366 64.104385 33.700279
49.204643 64.104385 33.906227
50.333366 62.599945 32.906227
50.333366 63.104385 32.648338
50.161827 63.104385 32.906227
49.863609 64.104385 32.906227
50.333366 64.104385 32.236336
49.526909 63.104385 33.906227
51.333366 65.104385 30.606634
51.110527 65.104385 30.906225
51.030815 66.104385 30.906225
51.333366 66.104385 30.531134
50.333366 65.229767 31.906225
50.220909 66.104385 31.906225
51.333366 67.104385 30.490454
50.981194 67.104385 30.906225
50.942802 68.104385 30.906225
51.333366 68.104385 30.454947
50.333366 67.104385 31.669989
50.139061 67.104385 31.906225
50.079582 68.104385 31.906225
50.333366 68.104385 31.606222
48.923637 65.104385 33.906227
49.333366 65.104385 33.300102
48.698448 66.104385 33.906227
49.333366 66.104385 33.040611
49.612724 65.104385 32.906227
49.333366 66.963272 32.906227
48.537651 67.104385 33.906227
49.238060 68.104385 32.906227
48.333366 68.104385 34.034779
54.333366 61.104385 26.995977
54.333366 61.299057 26.906225
54.333366 62.104385 26.612509
54.144737 62.104385 26.906225
53.784935 61.104385 27.906225
53.526482 62.104385 27.906225
54.020805 63.104385 26.906225
54.333366 63.104385 26.426733
54.333366 64.104385 26.476538
54.038933 64.104385 26.906225
53.333366 63.104385 27.974249
53.333366 64.280594 27.906225
53.333366 60.687225 28.906225
53.333366 61.104385 28.676580
53.201012 61.104385 28.906225
52.928307 62.104385 28.906225
53.333366 62.104385 28.227591
52.626366 61.104385 29.906225
52.333366 62.064224 29.906225
52.734612 63.104385 28.906225
52.625420 64.104385 28.906225
52.333366 63.104385 29.513815
52.088860 63.104385 29.906225
51.924126 64.104385 29.906225
52.333366 64.104385 29.308783
54.333366 65.104385 26.523779
54.051201 65.104385 26.906225
54.333366 66.104385 26.516821
