65.683197 -10.828495 0.030539
65.889984 -10.828495 -0.395212
66.343658 -10.828495 -1.395211
66.683197 -11.183978 -2.395211
66.683197 -11.828494 -2.841897
66.903717 -11.828494 -3.395211
66.683197 -12.502765 -3.395211
65.683197 -11.562884 -0.395212
65.601654 -11.828494 -0.395212
65.335327 -12.828494 -0.395212
66.040924 -11.828494 -1.395211
65.683197 -12.828494 -1.227853
65.140198 -13.828493 -0.395212
65.001343 -14.828493 -0.395212
65.683197 -13.118503 -1.395211
65.536194 -13.828493 -1.395211
65.376678 -14.828493 -1.395211
66.484589 -11.828494 -2.395211
66.181458 -12.828494 -2.395211
66.585846 -12.828494 -3.395211
65.683197 -13.828493 -1.789773
65.927124 -13.828493 -2.395211
65.683197 -14.828493 -2.252542
66.302887 -13.828493 -3.395211
66.091492 -14.828493 -3.395211
68.683197 -7.828496 -4.255043
69.237976 -7.828496 -5.395210
68.683197 -8.035161 -4.395210
68.683197 -8.828495 -5.017555
68.852448 -8.828495 -5.395210
68.404846 -8.828495 -4.395210
68.683197 -9.256596 -5.395210
68.019501 -9.828495 -4.395210
67.683197 -9.828495 -3.617592
67.638794 -10.828495 -4.395210
68.450195 -9.828495 -5.395210
68.031128 -10.828495 -5.395210
69.683197 -7.828496 -6.295204
69.326508 -8.828495 -6.395210
70.271790 -7.828496 -7.395209
69.683197 -8.828495 -7.124793
69.806763 -8.828495 -7.395209
68.683197 -9.828495 -5.939552
68.882935 -9.828495 -6.395210
68.683197 -10.244389 -6.395210
69.683197 -9.097919 -7.395209
69.310974 -9.828495 -7.395209
68.683197 -10.828495 -7.060187
68.803711 -10.828495 -7.395209
68.429413 -10.828495 -6.395210
67.294891 -11.828494 -4.395210
66.952942 -12.828494 -4.395210
66.683197 -12.828494 -3.671883
67.683197 -11.775409 -5.395210
67.312897 -12.828494 -5.395210
66.641022 -13.828493 -4.395210
66.988098 -13.828493 -5.395210
66.683197 -14.828493 -5.151436
66.761139 -14.828493 -5.395210
68.683197 -11.106082 -7.395209
68.026550 -11.828494 -6.395210
67.670074 -12.828494 -6.395210
68.383209 -11.828494 -7.395209
68.001831 -12.828494 -7.395209
67.344452 -13.828493 -6.395210
67.100861 -14.828493 -6.395210
67.683197 -13.775835 -7.395209
67.412323 -14.828493 -7.395209
66.428589 -14.828493 -4.395210
72.683197 0.320351 -9.395208
72.683197 -0.828498 -8.711371
73.072723 -0.828498 -9.395208
72.182434 0.171502 -8.395209
72.493042 -0.828498 -8.395209
72.646606 -1.828498 -8.395209
73.263733 -1.828498 -9.395208
72.655518 -2.828497 -8.395209
73.311981 -2.828497 -9.395208
73.296692 0.171502 -10.395208
73.683189 -0.985786 -10.395208
73.683189 0.571770 -11.395208
73.683189 0.171502 -11.078466
73.847801 0.171502 -11.395208
74.202873 -0.828498 -11.395208
73.683189 -1.828498 -10.105566
73.857689 -1.828498 -10.395208
73.683189 -2.828497 -9.975378
73.955956 -2.828497 -10.395208
74.431816 -1.828498 -11.395208
74.567070 -2.828497 -11.395208
72.683197 -3.828497 -8.635474
73.209442 -3.828497 -9.395208
72.683197 -4.828497 -8.978094
72.977783 -4.828497 -9.395208
72.517822 -3.828497 -8.395209
72.266693 -4.828497 -8.395209
71.683197 -4.828497 -7.593879
72.615234 -5.828496 -9.395208
71.683197 -5.828496 -8.108771
71.892883 -5.828496 -8.395209
71.683197 -6.259862 -8.395209
71.399628 -6.828496 -8.395209
72.098755 -6.828496 -9.395208
71.683197 -6.828496 -8.802191
73.683189 -3.828497 -10.081793
73.903343 -3.828497 -10.395208
73.683189 -4.828497 -10.360693
74.567406 -3.828497 -11.395208
74.417656 -4.828497 -11.395208
73.683189 -4.930044 -10.395208
73.368279 -5.828496 -10.395208
72.683197 -6.828496 -10.184729
72.845642 -6.828496 -10.395208
73.683189 -5.828496 -10.795752
74.118614 -5.828496 -11.395208
73.615288 -6.828496 -11.395208
74.683189 0.783775 -13.395207
74.683189 0.171502 -12.952397
74.899529 0.171502 -13.395207
75.253960 -0.828498 -13.395207
74.683189 -0.667625 -12.395207
74.683189 -0.828498 -12.307439
74.683189 -1.828498 -11.877782
74.969475 -1.828498 -12.395207
74.683189 -2.828497 -11.608556
75.132286 -2.828497 -12.395207
75.514610 -1.828498 -13.395207
75.683189 -2.805884 -13.395207
75.416008 0.171502 -14.395206
75.683189 -0.535514 -14.395206
75.683189 -0.828498 -14.216831
75.778465 -0.828498 -14.395206
75.683189 0.758522 -15.395206
75.683189 0.171502 -14.924931
75.889427 0.171502 -15.395206
76.245445 -0.828498 -15.395206
75.683189 -1.828498 -13.728612
76.029686 -1.828498 -14.395206
76.188438 -2.828497 -14.395206
76.485588 -1.828498 -15.395206
76.621056 -2.828497 -15.395206
74.387749 0.171502 -12.395207
74.683189 -3.828497 -11.591985
75.174767 -3.828497 -12.395207
74.683189 -4.828497 -11.810369
75.065544 -4.828497 -12.395207
75.683189 -3.828497 -13.266973
75.677971 -4.828497 -13.395207
74.683189 -5.828496 -12.204625
74.812523 -5.828496 -12.395207
74.683189 -6.160177 -12.395207
75.453819 -5.828496 -13.395207
75.011803 -6.828496 -13.395207
74.683189 -6.828496 -12.870976
76.257927 -3.828497 -14.395206
76.211815 -4.828497 -14.395206
76.683189 -3.734122 -15.395206
76.683189 -3.828497 -15.387424
76.683189 -4.471029 -15.395206
76.669792 -4.828497 -15.395206
75.683189 -5.828496 -13.786382
76.034660 -5.828496 -14.395206
75.655663 -6.828496 -14.395206
76.552513 -5.828496 -15.395206
76.239891 -6.828496 -15.395206
74.343040 -6.828496 -12.395207
70.683197 -7.828496 -8.149329
70.839172 -7.828496 -8.395209
70.683197 -8.119176 -8.395209
71.683197 -7.511464 -9.395208
71.471222 -7.828496 -9.395208
70.683197 -8.828495 -9.083441
70.844543 -8.828495 -9.395208
70.683197 -9.108524 -9.395208
72.683197 -7.083776 -10.395208
72.683197 -7.828496 -11.171911
72.842102 -7.828496 -11.395208
72.683197 -8.016301 -11.395208
72.132721 -7.828496 -10.395208
71.683197 -7.828496 -9.738562
71.683197 -8.429340 -10.395208
71.410339 -8.828495 -10.395208
72.038330 -8.828495 -11.395208
71.683197 -8.828495 -10.827459
70.683197 -9.828495 -10.307989
70.683197 -9.892155 -10.395208
71.683197 -9.319675 -11.395208
71.301086 -9.828495 -11.395208
70.683197 -10.601627 -11.395208
74.683189 -7.389363 -13.395207
75.030663 -7.828496 -14.395206
74.683189 -7.828496 -13.884160
74.683189 -8.288059 -14.395206
75.683189 -7.828496 -15.381901
74.883141 -8.828495 -15.395206
74.683189 -8.828495 -15.073795
74.683189 -9.053379 -15.395206
73.683189 -7.741139 -12.395207
72.683197 -8.828495 -12.300664
72.683197 -8.918278 -12.395207
74.345207 -7.828496 -13.395207
73.683189 -8.614170 -13.395207
73.492180 -8.828495 -13.395207
72.572876 -9.828495 -13.395207
71.927124 -9.828495 -12.395207
71.683197 -9.828495 -12.030461
71.683197 -10.098087 -12.395207
71.053497 -10.828495 -12.395207
70.683197 -10.828495 -11.735326
71.683197 -10.750065 -13.395207
74.208519 -8.828495 -14.395206
73.683189 -8.828495 -13.666234
73.683189 -9.391346 -14.395206
72.683197 -9.828495 -13.567632
73.260803 -9.828495 -14.395206
72.683197 -10.409428 -14.395206
73.683189 -9.828495 -15.012852
73.914879 -9.828495 -15.395206
73.683189 -10.063190 -15.395206
72.683197 -10.828495 -15.023899
72.909210 -10.828495 -15.395206
72.252258 -10.828495 -14.395206
70.683197 -11.266116 -12.395207
70.683197 -11.796557 -13.395207
72.683197 -11.032931 -15.395206
71.683197 -11.357211 -14.395206
71.176941 -11.828494 -14.395206
70.683197 -12.322711 -14.395206
71.683197 -11.828494 -15.231327
70.683197 -12.828494 -15.369205
70.318298 -8.828495 -8.395209
69.683197 -9.828495 -8.276649
69.191772 -10.828495 -8.395209
70.226379 -9.828495 -9.395208
69.604187 -10.828495 -9.395208
70.052765 -10.828495 -10.395208
69.683197 -10.828495 -9.595739
70.524567 -10.828495 -11.395208
68.683197 -11.828494 -8.257850
68.683197 -11.950259 -8.395209
69.088440 -11.828494 -9.395208
68.683197 -12.713855 -9.395208
68.328125 -12.828494 -8.395209
68.683197 -12.828494 -9.561438
67.962646 -13.828493 -8.395209
67.678406 -14.828493 -8.395209
68.230804 -13.828493 -9.395208
67.898590 -14.828493 -9.395208
69.683197 -11.441653 -10.395208
69.455780 -11.828494 -10.395208
68.939606 -12.828494 -10.395208
69.683197 -11.828494 -10.996832
69.824341 -11.828494 -11.395208
69.683197 -12.053470 -11.395208
69.243317 -12.828494 -11.395208
68.683197 -13.354693 -10.395208
68.683197 -13.828493 -11.323431
68.473297 -13.828493 -10.395208
68.094452 -14.828493 -10.395208
68.276367 -14.828493 -11.395208
70.234589 -11.828494 -12.395207
69.683197 -12.605884 -12.395207
69.544708 -12.828494 -12.395207
69.866302 -12.828494 -13.395207
69.683197 -12.828494 -12.832707
68.936707 -13.828493 -12.395207
68.683197 -14.290361 -12.395207
69.683197 -13.092486 -13.395207
69.193634 -13.828493 -13.395207
68.636078 -14.828493 -13.395207
68.459167 -14.828493 -12.395207
70.252899 -12.828494 -14.395206
69.683197 -13.550982 -14.395206
69.476318 -13.828493 -14.395206
68.683197 -14.828493 -13.681523
68.827026 -14.828493 -14.395206
69.683197 -13.828493 -15.102177
69.683197 -13.919680 -15.395206
69.031281 -14.828493 -15.395206
64.683197 -15.828493 0.212851
64.905701 -15.828493 -0.395212
64.683197 -16.828493 0.019919
64.832062 -16.828493 -0.395212
65.256104 -15.828493 -1.395211
65.174622 -16.828493 -1.395211
64.683197 -17.828491 -0.137979
64.780212 -17.828491 -0.395212
64.683197 -18.828491 -0.259348
65.134186 -17.828491 -1.395211
65.113678 -18.828491 -1.395211
65.683197 -15.193071 -2.395211
65.598022 -15.828493 -2.395211
65.516724 -16.828493 -2.395211
65.935944 -15.828493 -3.395211
65.683197 -15.828493 -2.629922
65.683197 -16.828493 -2.865670
65.850769 -16.828493 -3.395211
65.480499 -17.828491 -2.395211
65.466400 -18.828491 -2.395211
65.683197 -17.828491 -2.986855
65.807800 -17.828491 -3.395211
65.683197 -18.828491 -3.042336
65.787323 -18.828491 -3.395211
65.075531 -19.828491 -1.395211
64.683197 -19.828491 -0.394022
64.683197 -19.840988 -0.395212
64.660034 -20.828491 -0.395212
65.064575 -20.828491 -1.395211
64.669495 -21.828491 -0.395212
65.073181 -21.828491 -1.395211
64.634430 -22.828491 -0.395212
65.029297 -22.828491 -1.395211
65.450104 -19.828491 -2.395211
65.455841 -20.828491 -2.395211
65.683197 -19.828491 -3.057839
65.785553 -19.828491 -3.395211
65.683197 -20.828491 -3.026101
65.795898 -20.828491 -3.395211
65.462769 -21.828491 -2.395211
65.418213 -22.828491 -2.395211
65.683197 -21.828491 -2.991189
65.809296 -21.828491 -3.395211
65.683197 -22.828491 -3.076882
65.791809 -22.828491 -3.395211
66.683197 -15.289782 -5.395210
66.911346 -15.828493 -6.395210
66.683197 -15.828493 -5.678627
66.683197 -16.828493 -6.038856
66.788391 -16.828493 -6.395210
67.188416 -15.828493 -7.395209
67.035858 -16.828493 -7.395209
66.683197 -17.828491 -6.312660
66.957458 -17.828491 -7.395209
66.683197 -18.121964 -6.395210
66.910889 -18.828491 -7.395209
66.648163 -18.828491 -6.395210
66.273834 -15.828493 -4.395210
66.183319 -16.828493 -4.395210
66.599091 -15.828493 -5.395210
66.500427 -16.828493 -5.395210
66.125427 -17.828491 -4.395210
66.091064 -18.828491 -4.395210
66.426941 -17.828491 -5.395210
66.377380 -18.828491 -5.395210
66.656921 -19.828491 -6.395210
66.919250 -19.828491 -7.395209
66.683197 -20.396973 -6.395210
66.990295 -20.828491 -7.395209
66.683197 -20.828491 -6.315895
66.683197 -21.828491 -6.087257
66.785706 -21.828491 -6.395210
66.683197 -22.828491 -5.866004
66.869629 -22.828491 -6.395210
67.093445 -21.828491 -7.395209
67.200562 -22.828491 -7.395209
66.098053 -19.828491 -4.395210
66.112518 -20.828491 -4.395210
66.387054 -19.828491 -5.395210
66.415314 -20.828491 -5.395210
66.139893 -21.828491 -4.395210
66.162140 -22.828491 -4.395210
66.465515 -21.828491 -5.395210
66.523712 -22.828491 -5.395210
64.683197 -23.828489 -0.678476
64.977203 -23.828489 -1.395211
64.683197 -24.828489 -0.806528
64.935181 -24.828489 -1.395211
64.564301 -23.828489 -0.395212
64.496552 -24.828489 -0.395212
64.683197 -25.828489 -1.044168
64.835144 -25.828489 -1.395211
64.657745 -26.828489 -1.395211
64.378143 -25.828489 -0.395212
64.182953 -26.828489 -0.395212
65.384796 -23.828489 -2.395211
65.360260 -24.828489 -2.395211
65.683197 -23.828489 -3.140908
65.775482 -23.828489 -3.395211
65.683197 -24.828489 -3.182106
65.760956 -24.828489 -3.395211
65.268646 -25.828489 -2.395211
65.113159 -26.828489 -2.395211
65.683197 -25.828489 -3.382821
65.683197 -25.869734 -3.395211
65.566498 -26.828489 -3.395211
63.683197 -27.828489 0.106772
63.956879 -27.828489 -0.395212
63.683197 -28.828487 -0.343485
64.449524 -27.828489 -1.395211
64.231812 -28.828487 -1.395211
63.400391 -29.828487 -0.395212
62.992676 -30.828487 -0.395212
63.683197 -29.828487 -0.860696
63.963043 -29.828487 -1.395211
63.683197 -30.641094 -1.395211
63.611298 -30.828487 -1.395211
64.683197 -27.828489 -1.882424
64.927765 -27.828489 -2.395211
64.683197 -28.828487 -2.322793
64.683197 -28.975887 -2.395211
65.408203 -27.828489 -3.395211
65.184296 -28.828487 -3.395211
64.683197 -29.828487 -2.868691
64.911377 -29.828487 -3.395211
64.683197 -30.584728 -3.395211
64.459015 -29.828487 -2.395211
64.129974 -30.828487 -2.395211
64.601654 -30.828487 -3.395211
66.683197 -23.828489 -5.779731
66.914825 -23.828489 -6.395210
66.683197 -24.828489 -5.785102
66.929230 -24.828489 -6.395210
67.278809 -23.828489 -7.395209
67.330902 -24.828489 -7.395209
66.683197 -25.828489 -5.843879
66.928955 -25.828489 -6.395210
66.683197 -26.828489 -5.981727
66.879272 -26.828489 -6.395210
67.373077 -25.828489 -7.395209
67.350464 -26.828489 -7.395209
66.164825 -23.828489 -4.395210
66.151703 -24.828489 -4.395210
66.546051 -23.828489 -5.395210
66.539124 -24.828489 -5.395210
66.091827 -25.828489 -4.395210
65.683197 -26.828489 -3.682320
65.995392 -26.828489 -4.395210
66.501587 -25.828489 -5.395210
66.428741 -26.828489 -5.395210
66.683197 -27.828489 -6.231666
67.241333 -27.828489 -7.395209
66.683197 -28.329891 -6.395210
67.085602 -28.828487 -7.395209
66.594757 -28.828487 -6.395210
66.683197 -29.828487 -6.990912
66.876282 -29.828487 -7.395209
66.683197 -30.548717 -7.395209
65.683197 -27.828489 -4.021767
65.858429 -27.828489 -4.395210
65.650482 -28.828487 -4.395210
66.306152 -27.828489 -5.395210
66.113831 -28.828487 -5.395210
65.380157 -29.828487 -4.395210
65.053467 -30.828487 -4.395210
64.683197 -30.828487 -3.583046
65.683197 -29.828487 -5.004158
65.863953 -29.828487 -5.395210
65.683197 -30.420544 -5.395210
65.549591 -30.828487 -5.395210
66.372833 -29.828487 -6.395210
66.071686 -30.828487 -6.395210
65.683197 -30.828487 -5.664131
66.603180 -30.828487 -7.395209
67.428802 -15.828493 -8.395209
67.250519 -16.828493 -8.395209
67.683197 -15.647249 -9.395208
67.450531 -16.828493 -9.395208
67.173126 -17.828491 -8.395209
67.147919 -18.828491 -8.395209
67.368256 -17.828491 -9.395208
67.365784 -18.828491 -9.395208
67.822266 -15.828493 -10.395208
67.683197 -15.828493 -9.655371
67.683197 -16.532610 -10.395208
67.642944 -16.828493 -10.395208
67.992279 -15.828493 -11.395208
67.826904 -16.828493 -11.395208
67.683197 -16.828493 -10.594580
67.554565 -17.828491 -10.395208
67.576721 -18.828491 -10.395208
67.683197 -17.828491 -11.048925
67.744141 -17.828491 -11.395208
67.683197 -18.828491 -10.863348
67.790680 -18.828491 -11.395208
67.168304 -19.828491 -8.395209
67.264526 -20.828491 -8.395209
67.416077 -19.828491 -9.395208
67.535004 -20.828491 -9.395208
67.400787 -21.828491 -8.395209
67.532959 -22.828491 -8.395209
67.683197 -21.734192 -9.395208
67.683197 -22.828491 -8.832098
67.857269 -22.828491 -9.395208
67.683197 -19.907578 -10.395208
67.683197 -20.828491 -9.946051
67.816620 -20.828491 -10.395208
67.930054 -19.828491 -11.395208
68.102631 -20.828491 -11.395208
68.009247 -21.828491 -10.395208
68.186096 -22.828491 -10.395208
68.316071 -21.828491 -11.395208
68.508636 -22.828491 -11.395208
68.157867 -15.828493 -12.395207
68.000580 -16.828493 -12.395207
68.308868 -15.828493 -13.395207
68.156708 -16.828493 -13.395207
67.938049 -17.828491 -12.395207
68.006287 -18.828491 -12.395207
68.123016 -17.828491 -13.395207
68.218323 -18.828491 -13.395207
68.683197 -15.111834 -14.395206
68.683197 -15.465654 -15.395206
68.438080 -15.828493 -14.395206
68.284241 -16.828493 -14.395206
68.556519 -15.828493 -15.395206
68.386475 -16.828493 -15.395206
68.279877 -17.828491 -14.395206
68.411621 -18.828491 -14.395206
68.404419 -17.828491 -15.395206
68.571899 -18.828491 -15.395206
68.176361 -19.828491 -12.395207
68.371277 -20.828491 -12.395207
68.407410 -19.828491 -13.395207
68.614990 -20.828491 -13.395207
68.683197 -22.186905 -12.395207
68.683197 -22.828491 -11.975713
68.814087 -22.828491 -12.395207
68.683197 -21.125290 -13.395207
68.683197 -21.828491 -12.708257
68.861145 -21.828491 -13.395207
69.106415 -22.828491 -13.395207
68.599426 -21.828491 -12.395207
68.683197 -20.052490 -14.395206
68.683197 -20.828491 -13.676946
68.860168 -20.828491 -14.395206
68.683197 -19.289490 -15.395206
68.683197 -19.828491 -14.615940
68.831848 -19.828491 -15.395206
69.081024 -20.828491 -15.395206
68.633148 -19.828491 -14.395206
69.110931 -21.828491 -14.395206
69.384796 -22.828491 -14.395206
69.342407 -21.828491 -15.395206
69.629883 -22.828491 -15.395206
67.643951 -23.828489 -8.395209
67.683197 -24.228041 -8.395209
67.683197 -24.828489 -8.287177
67.999359 -23.828489 -9.395208
68.111816 -24.828489 -9.395208
67.683197 -25.828489 -8.144813
67.790863 -25.828489 -8.395209
67.683197 -26.828489 -8.140754
67.798462 -26.828489 -8.395209
68.176392 -25.828489 -9.395208
68.204498 -26.828489 -9.395208
68.683197 -23.816648 -11.395208
68.683197 -24.828489 -10.939154
68.842194 -24.828489 -11.395208
68.345245 -23.828489 -10.395208
68.478210 -24.828489 -10.395208
68.683197 -25.828489 -10.725805
68.929565 -25.828489 -11.395208
68.683197 -26.828489 -10.618841
68.970123 -26.828489 -11.395208
68.552429 -25.828489 -10.395208
68.593506 -26.828489 -10.395208
67.683197 -27.828489 -8.307746
67.683197 -28.191830 -8.395209
67.592102 -28.828487 -8.395209
68.176331 -27.828489 -9.395208
68.066742 -28.828487 -9.395208
67.389008 -29.828487 -8.395209
67.121857 -30.828487 -8.395209
67.683197 -29.828487 -8.961493
67.884430 -29.828487 -9.395208
67.656555 -30.828487 -9.395208
68.683197 -27.828489 -10.600439
68.980286 -27.828489 -11.395208
68.683197 -28.828487 -10.750769
68.935028 -28.828487 -11.395208
68.597412 -27.828489 -10.395208
68.525116 -28.828487 -10.395208
68.683197 -29.828487 -11.088110
68.805847 -29.828487 -11.395208
68.683197 -30.462185 -11.395208
68.369080 -29.828487 -10.395208
68.160126 -30.828487 -10.395208
68.598816 -30.828487 -11.395208
69.008667 -23.828489 -12.395207
69.188293 -24.828489 -12.395207
69.324310 -23.828489 -13.395207
69.514221 -24.828489 -13.395207
69.294647 -25.828489 -12.395207
69.332855 -26.828489 -12.395207
69.630127 -25.828489 -13.395207
69.669739 -26.828489 -13.395207
69.613831 -23.828489 -14.395206
69.683197 -24.166853 -14.395206
69.683197 -24.828489 -13.997991
69.794739 -24.828489 -14.395206
69.683197 -23.051603 -15.395206
69.683197 -23.828489 -14.635319
69.863678 -23.828489 -15.395206
70.029419 -24.828489 -15.395206
69.914886 -25.828489 -14.395206
69.969269 -26.828489 -14.395206
70.144226 -25.828489 -15.395206
70.199280 -26.828489 -15.395206
69.336609 -27.828489 -12.395207
69.298370 -28.828487 -12.395207
69.666382 -27.828489 -13.395207
69.620331 -28.828487 -13.395207
69.182831 -29.828487 -12.395207
68.965637 -30.828487 -12.395207
68.683197 -30.828487 -11.614781
69.496094 -29.828487 -13.395207
69.266083 -30.828487 -13.395207
69.964996 -27.828489 -14.395206
69.683197 -28.828487 -13.624303
69.888062 -28.828487 -14.395206
70.181305 -27.828489 -15.395206
70.080475 -28.828487 -15.395206
69.683197 -29.828487 -14.192356
69.683197 -30.020626 -14.395206
69.486786 -30.828487 -14.395206
69.897339 -29.828487 -15.395206
69.644409 -30.828487 -15.395206
63.153015 -31.828487 -1.395211
63.683197 -31.828487 -2.336251
63.241577 -32.828487 -2.395211
64.202484 -31.828487 -3.395211
63.683197 -32.828487 -3.183480
63.779510 -32.828487 -3.395211
63.683197 -33.069530 -3.395211
63.295258 -33.828487 -3.395211
64.657074 -31.828487 -4.395210
65.124512 -31.828487 -5.395210
64.683197 -32.828487 -5.378609
64.238922 -32.828487 -4.395210
63.683197 -33.828487 -4.168312
63.792938 -33.828487 -4.395210
64.233185 -33.828487 -5.395210
65.655701 -31.828487 -6.395210
65.190735 -32.828487 -6.395210
66.247498 -31.828487 -7.395209
65.683197 -32.828487 -7.214820
65.789612 -32.828487 -7.395209
64.683197 -33.828487 -6.334754
64.683197 -33.888577 -6.395210
65.683197 -33.049465 -7.395209
65.257996 -33.828487 -7.395209
64.683197 -34.824703 -7.395209
66.683197 -31.828487 -8.149970
66.823822 -31.828487 -8.395209
66.683197 -32.210430 -8.395209
67.358307 -31.828487 -9.395208
66.683197 -32.828487 -8.863104
66.948029 -32.828487 -9.395208
66.683197 -33.366756 -9.395208
67.683197 -31.828487 -10.040228
67.861969 -31.828487 -10.395208
67.683197 -32.275875 -10.395208
67.440460 -32.828487 -10.395208
68.290436 -31.828487 -11.395208
67.683197 -32.828487 -10.908880
67.865356 -32.828487 -11.395208
66.683197 -33.828487 -9.971014
66.897675 -33.828487 -10.395208
66.683197 -34.151302 -10.395208
67.683197 -33.233959 -11.395208
67.353546 -33.828487 -11.395208
66.683197 -34.822353 -11.395208
66.412292 -32.828487 -8.395209
65.683197 -33.828487 -8.154639
65.827484 -33.828487 -8.395209
65.683197 -34.047985 -8.395209
65.169769 -34.828487 -8.395209
66.385132 -33.828487 -9.395208
65.683197 -34.817089 -9.395208
66.198547 -34.828487 -10.395208
64.683197 -35.524548 -8.395209
64.944031 -35.828487 -9.395208
64.683197 -35.828487 -8.863836
64.683197 -36.185982 -9.395208
63.966309 -35.828487 -7.395209
64.441101 -35.828487 -8.395209
65.683197 -35.537838 -10.395208
65.465729 -35.828487 -10.395208
64.683197 -36.828484 -10.244726
64.683197 -36.940788 -10.395208
65.939117 -35.828487 -11.395208
65.683197 -35.828487 -10.817633
65.683197 -36.181679 -11.395208
68.683197 -31.724392 -12.395207
68.928894 -31.828487 -13.395207
68.683197 -32.444637 -13.395207
68.217041 -32.828487 -12.395207
68.515137 -32.828487 -13.395207
67.683197 -33.828487 -12.257207
67.072693 -34.828487 -12.395207
68.026947 -33.828487 -13.395207
67.683197 -34.406979 -13.395207
67.403778 -34.828487 -13.395207
69.154205 -31.828487 -14.395206
68.683197 -32.828487 -14.073826
68.683197 -32.981976 -14.395206
69.310852 -31.828487 -15.395206
68.914703 -32.828487 -15.395206
68.683197 -33.351986 -15.395206
68.260498 -33.828487 -14.395206
67.683197 -34.788616 -14.395206
68.438202 -33.828487 -15.395206
67.831024 -34.828487 -15.395206
66.683197 -35.378384 -12.395207
66.661499 -35.828487 -13.395207
66.896942 -35.828487 -14.395206
66.683197 -35.828487 -13.485814
66.683197 -36.105251 -14.395206
67.683197 -35.064846 -15.395206
67.093842 -35.828487 -15.395206
66.683197 -36.360741 -15.395206
66.348175 -35.828487 -12.395207
65.945099 -36.828484 -13.395207
78.683189 -5.350637 -23.395203
78.683189 -5.828496 -23.145693
78.697807 -5.828496 -23.395203
78.683189 -6.403951 -23.395203
78.726738 -5.828496 -24.395203
78.683189 -5.253088 -24.395203
78.683189 -6.828496 -23.918152
78.683189 -6.940312 -24.395203
78.683189 -5.735982 -25.395203
78.683189 -5.828496 -25.484711
78.683189 -6.579946 -25.395203
78.683189 -6.828496 -25.168213
76.683189 0.030297 -17.395206
76.683189 -0.999213 -16.395206
76.950737 -0.828498 -17.395206
76.306328 0.171502 -16.395206
76.683189 0.171502 -17.542393
76.683189 -1.828498 -15.897587
76.872063 -1.828498 -16.395206
77.005699 -2.828497 -16.395206
77.194328 -1.828498 -17.395206
77.338676 -2.828497 -17.395206
76.903404 0.171502 -18.395205
77.196831 -0.828498 -18.395205
77.084099 0.171502 -19.395205
77.381432 -0.828498 -19.395205
77.456566 -1.828498 -18.395205
77.620934 -2.828497 -18.395205
77.683189 -1.828498 -19.555269
77.683189 -1.930655 -19.395205
77.683189 -2.828497 -18.624544
77.859062 -2.828497 -19.395205
77.080070 -3.828497 -16.395206
77.090630 -4.828497 -16.395206
77.432060 -3.828497 -17.395206
77.467430 -4.828497 -17.395206
76.683189 -5.828496 -15.677036
77.010124 -5.828496 -16.395206
76.683189 -6.828496 -16.234867
77.417473 -5.828496 -17.395206
77.207848 -6.828496 -17.395206
77.683189 -3.343481 -18.395205
77.683189 -3.828497 -18.216646
77.683189 -4.828497 -18.056705
77.798302 -4.828497 -18.395205
78.014122 -3.828497 -19.395205
78.093681 -4.828497 -19.395205
77.683189 -5.828496 -18.158876
77.765160 -5.828496 -18.395205
77.683189 -6.449422 -18.395205
77.604027 -6.828496 -18.395205
78.069695 -5.828496 -19.395205
77.924675 -6.828496 -19.395205
77.683189 -6.828496 -18.604708
77.197258 0.171502 -20.395205
77.510185 -0.828498 -20.395205
77.253716 0.171502 -21.395205
77.564110 -0.828498 -21.395205
77.683189 -1.418387 -20.395205
77.807457 -1.828498 -20.395205
78.045067 -2.828497 -20.395205
77.890343 -1.828498 -21.395205
77.683189 -1.210151 -21.395205
78.162743 -2.828497 -21.395205
77.246605 0.171502 -22.395205
77.543846 -0.828498 -22.395205
77.191154 0.171502 -23.395203
77.475456 -0.828498 -23.395203
77.683189 -1.247199 -22.395205
77.894859 -1.828498 -22.395205
78.201439 -2.828497 -22.395205
77.683189 -1.427543 -23.395203
77.837578 -1.828498 -23.395203
78.172386 -2.828497 -23.395203
78.229088 -3.828497 -20.395205
78.329430 -4.828497 -20.395205
78.375481 -3.828497 -21.395205
78.495262 -4.828497 -21.395205
78.323967 -5.828496 -20.395205
78.207085 -6.828496 -20.395205
78.506004 -5.828496 -21.395205
78.417534 -6.828496 -21.395205
78.445274 -3.828497 -22.395205
78.591179 -4.828497 -22.395205
78.445366 -3.828497 -23.395203
78.630119 -4.828497 -23.395203
78.621056 -5.828496 -22.395205
78.555931 -6.828496 -22.395205
78.655174 -6.828496 -23.395203
76.683189 -7.035558 -16.395206
76.683189 -7.828496 -17.222385
76.683189 -7.961308 -17.395206
76.262627 -7.828496 -16.395206
75.683189 -8.633900 -16.395206
75.522423 -8.828495 -16.395206
76.063560 -8.828495 -17.395206
75.683189 -8.828495 -16.659946
74.683189 -9.828495 -16.552952
75.683189 -9.303837 -17.395206
75.198265 -9.828495 -17.395206
74.683189 -10.328144 -17.395206
77.194756 -7.828496 -18.395205
76.683189 -8.623936 -18.395205
77.683189 -7.579640 -19.395205
77.560753 -7.828496 -19.395205
76.901299 -8.828495 -19.395205
76.683189 -8.828495 -18.770998
76.524406 -8.828495 -18.395205
76.683189 -9.125278 -19.395205
75.683189 -9.828495 -18.391817
74.683189 -10.828495 -18.448854
76.100945 -9.828495 -19.395205
75.683189 -10.306522 -19.395205
75.168968 -10.828495 -19.395205
74.572746 -9.828495 -16.395206
73.683189 -10.661961 -16.395206
73.498405 -10.828495 -16.395206
73.683189 -10.828495 -16.692448
74.108879 -10.828495 -17.395206
74.654106 -10.828495 -18.395205
74.683189 -11.228793 -19.395205
72.683197 -11.519351 -16.395206
73.683189 -11.167895 -17.395206
72.683197 -11.828494 -17.114933
72.683197 -11.941272 -17.395206
72.313782 -11.828494 -16.395206
71.683197 -12.366885 -16.395206
71.143341 -12.828494 -16.395206
71.683197 -12.699786 -17.395206
71.514252 -12.828494 -17.395206
70.683197 -13.248645 -16.395206
70.683197 -13.513796 -17.395206
73.683189 -11.614230 -18.395205
73.394005 -11.828494 -18.395205
72.683197 -12.342944 -18.395205
73.683189 -11.828494 -18.912844
73.910271 -11.828494 -19.395205
73.683189 -12.003512 -19.395205
72.683197 -12.712359 -19.395205
71.683197 -12.828494 -17.859013
71.925903 -12.828494 -18.395205
72.484192 -12.828494 -19.395205
71.683197 -12.990161 -18.395205
70.573975 -13.828493 -18.395205
71.683197 -13.322101 -19.395205
70.683197 -13.828493 -18.776339
70.910858 -13.828493 -19.395205
70.683197 -13.986727 -19.395205
77.683189 -7.828496 -19.787172
77.870201 -7.828496 -20.395205
77.683189 -8.158803 -20.395205
77.227959 -8.828495 -20.395205
78.127739 -7.828496 -21.395205
77.683189 -8.605625 -21.395205
77.531151 -8.828495 -21.395205
76.683189 -9.556965 -20.395205
76.683189 -9.828495 -21.131563
76.683189 -9.920658 -21.395205
76.459068 -9.828495 -20.395205
75.580528 -10.828495 -20.395205
75.683189 -10.828495 -20.718233
75.863731 -10.828495 -21.395205
78.312065 -7.828496 -22.395205
77.683189 -8.828495 -21.977938
77.683189 -8.978992 -22.395205
78.443108 -7.828496 -23.395203
77.956444 -8.828495 -23.395203
77.032494 -9.828495 -22.395205
76.683189 -10.257313 -22.395205
77.683189 -9.240818 -23.395203
77.227867 -9.828495 -23.395203
76.683189 -10.521473 -23.395203
76.162346 -10.828495 -22.395205
76.428276 -10.828495 -23.395203
74.683189 -11.549228 -20.395205
75.683189 -11.003909 -21.395205
74.585136 -11.828494 -21.395205
75.683189 -11.287585 -22.395205
74.683189 -11.828494 -21.681368
74.996788 -11.828494 -22.395205
74.683189 -12.040439 -22.395205
75.683189 -11.573367 -23.395203
75.382286 -11.828494 -23.395203
74.683189 -12.330722 -23.395203
74.302818 -11.828494 -20.395205
73.683189 -12.277316 -20.395205
72.683197 -12.828494 -19.814486
72.898376 -12.828494 -20.395205
73.683189 -12.486758 -21.395205
73.178741 -12.828494 -21.395205
72.683197 -12.994006 -20.395205
72.683197 -13.177844 -21.395205
71.683197 -13.620363 -20.395205
71.350128 -13.828493 -20.395205
70.683197 -14.259127 -20.395205
71.683197 -13.828493 -21.434969
71.672943 -13.828493 -21.395205
70.683197 -14.534060 -21.395205
73.683189 -12.720920 -22.395205
73.506615 -12.828494 -22.395205
73.878990 -12.828494 -23.395203
73.683189 -12.828494 -22.865267
72.683197 -13.343600 -22.395205
73.683189 -12.943332 -23.395203
72.683197 -13.533113 -23.395203
71.936066 -13.828493 -22.395205
71.683197 -14.014650 -22.395205
70.523895 -14.828493 -22.395205
72.223328 -13.828493 -23.395203
71.683197 -14.210451 -23.395203
70.683197 -14.828493 -23.190126
70.683197 -14.848146 -23.395203
70.056152 -13.828493 -16.395206
69.683197 -14.208559 -16.395206
69.217529 -14.828493 -16.395206
70.321869 -13.828493 -17.395206
69.683197 -14.471788 -17.395206
69.398285 -14.828493 -17.395206
69.570801 -14.828493 -18.395205
69.683197 -14.828493 -19.030703
69.683197 -14.902178 -19.395205
69.989441 -14.828493 -20.395205
70.285828 -14.828493 -21.395205
77.078270 0.171502 -24.395203
77.356377 -0.828498 -24.395203
76.906883 0.171502 -25.395203
77.173332 -0.828498 -25.395203
77.739433 -1.828498 -24.395203
78.093834 -2.828497 -24.395203
77.683189 -1.828498 -24.775208
77.582664 -1.828498 -25.395203
77.946495 -2.828497 -25.395203
77.683189 -2.081977 -25.395203
76.685661 0.171502 -26.395203
76.933617 -0.828498 -26.395203
76.683189 1.167854 -27.395203
76.683189 -0.828498 -27.309357
76.428673 0.171502 -27.395203
77.365501 -1.828498 -26.395203
77.683189 -2.629202 -26.395203
77.754051 -2.828497 -26.395203
77.113060 -1.828498 -27.395203
77.683189 -2.828497 -26.717621
77.541801 -2.828497 -27.395203
78.393425 -3.828497 -24.395203
78.619926 -4.828497 -24.395203
78.277672 -3.828497 -25.395203
78.552544 -4.828497 -25.395203
78.669029 -6.828496 -25.395203
78.109795 -3.828497 -26.395203
78.415520 -4.828497 -26.395203
77.683189 -3.248175 -27.395203
77.895409 -3.828497 -27.395203
78.216515 -4.828497 -27.395203
78.587334 -5.828496 -26.395203
78.598869 -6.828496 -26.395203
78.429466 -5.828496 -27.395203
78.475212 -6.828496 -27.395203
76.142265 0.171502 -28.395203
76.373436 -0.828498 -28.395203
75.864891 0.171502 -29.395201
76.060173 -0.828498 -29.395201
76.683189 -1.537269 -28.395203
76.830254 -1.828498 -28.395203
77.273369 -2.828497 -28.395203
76.683189 -1.828498 -28.865202
76.683189 -2.179801 -29.395201
76.969933 -2.828497 -29.395201
76.516045 -1.828498 -29.395201
75.683189 0.607125 -30.395201
75.683189 0.171502 -30.086576
75.604088 0.171502 -30.395201
75.683189 -0.612449 -30.395201
75.747520 -0.828498 -30.395201
75.683189 0.999214 -31.395201
75.362175 0.171502 -31.395201
75.683189 -0.828498 -30.596586
75.457817 -0.828498 -31.395201
76.683189 -2.867301 -30.395201
76.203819 -1.828498 -30.395201
75.683189 -1.410956 -31.395201
75.901207 -1.828498 -31.395201
76.374504 -2.828497 -31.395201
77.683189 -3.828497 -28.222168
77.683189 -3.962255 -28.395203
77.969872 -4.828497 -28.395203
77.354607 -3.828497 -29.395201
77.683189 -4.837621 -29.395201
78.215782 -5.828496 -28.395203
78.285637 -6.828496 -28.395203
77.927177 -5.828496 -29.395201
78.014610 -6.828496 -29.395201
77.054405 -3.828497 -30.395201
77.383141 -4.828497 -30.395201
76.683189 -3.689474 -31.395201
76.683189 -3.828497 -31.547087
77.047783 -4.828497 -31.395201
77.683189 -5.828496 -30.174253
77.610039 -5.828496 -30.395201
77.683189 -6.828496 -30.394163
77.279747 -5.828496 -31.395201
77.339195 -6.828496 -31.395201
78.506187 -7.828496 -24.395203
78.042870 -8.828495 -24.395203
78.492577 -7.828496 -25.395203
78.049980 -8.828495 -25.395203
77.683189 -9.347034 -24.395203
77.300835 -9.828495 -24.395203
76.683189 -10.624973 -24.395203
77.683189 -9.379429 -25.395203
77.327904 -9.828495 -25.395203
76.683189 -10.613102 -25.395203
76.521843 -10.828495 -24.395203
76.498070 -10.828495 -25.395203
78.425224 -7.828496 -26.395203
77.995842 -8.828495 -26.395203
78.312157 -7.828496 -27.395203
77.898521 -8.828495 -27.395203
77.683189 -9.330524 -26.395203
77.282555 -9.828495 -26.395203
76.683189 -10.500141 -26.395203
77.683189 -9.199360 -27.395203
77.202080 -9.828495 -27.395203
76.683189 -10.407307 -27.395203
76.380699 -10.828495 -26.395203
76.286919 -10.828495 -27.395203
75.683189 -11.686419 -24.395203
75.518852 -11.828494 -24.395203
74.683189 -12.460147 -24.395203
75.683189 -11.633304 -25.395203
75.455956 -11.828494 -25.395203
74.683189 -12.417468 -25.395203
75.683189 -11.521884 -26.395203
75.326897 -11.828494 -26.395203
74.683189 -12.293109 -26.395203
75.683189 -11.445132 -27.395203
75.238274 -11.828494 -27.395203
74.683189 -12.213382 -27.395203
74.119499 -12.828494 -24.395203
74.102989 -12.828494 -25.395203
73.683189 -13.091372 -24.395203
72.683197 -13.670580 -24.395203
73.683189 -13.111911 -25.395203
72.683197 -13.719790 -25.395203
72.425476 -13.828493 -24.395203
71.683197 -14.328524 -24.395203
70.875793 -14.828493 -24.395203
72.499084 -13.828493 -25.395203
71.683197 -14.354174 -25.395203
70.898865 -14.828493 -25.395203
73.913536 -12.828494 -26.395203
73.683189 -12.897250 -27.395203
73.683189 -12.990466 -26.395203
72.683197 -13.683504 -26.395203
72.683197 -13.633257 -27.395203
72.443970 -13.828493 -26.395203
71.683197 -14.323717 -26.395203
70.734222 -14.828493 -26.395203
72.365234 -13.828493 -27.395203
71.683197 -14.269976 -27.395203
70.683197 -14.735659 -27.395203
78.151665 -7.828496 -28.395203
77.683189 -9.000309 -28.395203
77.907890 -7.828496 -29.395201
77.683189 -8.828495 -28.861845
77.683189 -8.543613 -29.395201
77.546379 -8.828495 -29.395201
77.116020 -9.828495 -28.395203
76.683189 -10.345982 -28.395203
76.887169 -9.828495 -29.395201
76.683189 -10.092777 -29.395201
76.238487 -10.828495 -28.395203
76.085381 -10.828495 -29.395201
77.683189 -7.828496 -30.114866
77.580040 -7.828496 -30.395201
77.204857 -8.828495 -30.395201
77.207115 -7.828496 -31.395201
76.835869 -8.828495 -31.395201
76.683189 -9.828495 -29.992094
76.683189 -9.638493 -30.395201
76.683189 -9.106785 -31.395201
76.529106 -9.828495 -30.395201
75.683189 -10.961322 -30.395201
76.152672 -9.828495 -31.395201
75.683189 -10.828495 -30.662352
75.683189 -10.447056 -31.395201
75.398155 -10.828495 -31.395201
75.683189 -11.406344 -28.395203
75.201317 -11.828494 -28.395203
74.683189 -12.190570 -28.395203
75.683189 -11.295230 -29.395201
75.111046 -11.828494 -29.395201
74.683189 -12.134875 -29.395201
74.683189 -11.926471 -30.395201
74.683189 -11.828494 -30.673582
74.683189 -11.545489 -31.395201
73.683189 -12.877383 -28.395203
73.683189 -12.828494 -29.099913
73.640038 -12.828494 -29.395201
72.683197 -13.607454 -28.395203
72.683197 -13.484622 -29.395201
72.319855 -13.828493 -28.395203
71.683197 -14.215105 -28.395203
70.683197 -14.625566 -28.395203
72.093964 -13.828493 -29.395201
71.683197 -14.066057 -29.395201
70.683197 -14.487444 -29.395201
73.683189 -12.592853 -30.395201
73.295471 -12.828494 -30.395201
74.314812 -11.828494 -31.395201
73.683189 -12.268741 -31.395201
72.768494 -12.828494 -31.395201
72.683197 -13.215137 -30.395201
71.683197 -13.828493 -30.269346
70.683197 -14.300219 -30.395201
71.683197 -13.504549 -31.395201
71.122253 -13.828493 -31.395201
70.683197 -14.067858 -31.395201
70.401459 -14.828493 -27.395203
70.041809 -14.828493 -28.395203
69.683197 -14.828493 -29.194120
69.600067 -14.828493 -29.395201
69.683197 -14.647936 -30.395201
69.212677 -14.828493 -30.395201
69.683197 -14.500795 -31.395201
68.882538 -14.828493 -31.395201
68.657501 -15.828493 -16.395206
68.683197 -15.828493 -16.666599
68.764374 -15.828493 -17.395206
68.683197 -16.025515 -17.395206
68.462891 -16.828493 -16.395206
68.524261 -16.828493 -17.395206
68.761627 -18.828491 -17.395206
68.683197 -18.533615 -17.395206
68.683197 -18.801117 -16.395206
68.497528 -17.828491 -16.395206
68.557220 -17.828491 -17.395206
68.860870 -15.828493 -18.395205
68.683197 -16.242022 -18.395205
68.971527 -15.828493 -19.395205
68.683197 -16.441103 -19.395205
68.565674 -16.828493 -18.395205
68.594574 -16.828493 -19.395205
68.783936 -18.828491 -18.395205
68.683197 -18.473083 -18.395205
68.683197 -18.572037 -19.395205
68.769043 -18.828491 -19.395205
68.572906 -17.828491 -18.395205
68.553802 -17.828491 -19.395205
68.968201 -19.828491 -16.395206
69.241455 -20.828491 -16.395206
69.042206 -19.828491 -17.395206
69.330475 -20.828491 -17.395206
69.510223 -21.828491 -16.395206
69.683197 -22.394028 -16.395206
69.683197 -22.828491 -15.688938
69.802094 -22.828491 -16.395206
69.606964 -21.828491 -17.395206
69.899048 -22.828491 -17.395206
69.683197 -22.069946 -17.395206
69.077576 -19.828491 -18.395205
69.369415 -20.828491 -18.395205
69.084198 -19.828491 -19.395205
69.366882 -20.828491 -19.395205
69.683197 -21.929184 -18.395205
69.934357 -22.828491 -18.395205
69.683197 -21.971451 -19.395205
69.910675 -22.828491 -19.395205
69.683197 -15.146608 -20.395205
69.130127 -15.828493 -20.395205
68.628998 -16.828493 -20.395205
69.683197 -15.404421 -21.395205
69.301971 -15.828493 -21.395205
68.646881 -16.828493 -21.395205
68.710327 -18.828491 -20.395205
68.508240 -17.828491 -20.395205
68.435120 -17.828491 -21.395205
68.683197 -18.828491 -20.701815
68.612213 -18.828491 -21.395205
69.683197 -15.545336 -22.395205
69.397430 -15.828493 -22.395205
68.607452 -16.828493 -22.395205
69.683197 -15.578951 -23.395203
69.395538 -15.828493 -23.395203
68.683197 -16.521151 -23.395203
68.489868 -16.828493 -23.395203
68.317261 -17.828491 -22.395205
68.469330 -18.828491 -22.395205
68.136475 -17.828491 -23.395203
68.251801 -18.828491 -23.395203
69.045197 -19.828491 -20.395205
69.317627 -20.828491 -20.395205
68.960480 -19.828491 -21.395205
68.683197 -19.043335 -21.395205
69.224762 -20.828491 -21.395205
69.571960 -21.828491 -20.395205
69.683197 -22.228394 -20.395205
69.823456 -22.828491 -20.395205
69.454346 -21.828491 -21.395205
69.683197 -22.848906 -21.395205
68.683197 -19.470551 -22.395205
68.813171 -19.828491 -22.395205
69.077179 -20.828491 -22.395205
68.683197 -19.828491 -22.960787
68.683197 -20.171890 -23.395203
68.860809 -20.828491 -23.395203
68.576904 -19.828491 -23.395203
69.288422 -21.828491 -22.395205
69.495636 -22.828491 -22.395205
69.080841 -21.828491 -23.395203
69.285919 -22.828491 -23.395203
70.046173 -23.828489 -16.395206
70.200897 -24.828489 -16.395206
70.140778 -23.828489 -17.395206
70.291565 -24.828489 -17.395206
70.305115 -25.828489 -16.395206
70.351959 -26.828489 -16.395206
70.388031 -25.828489 -17.395206
70.427643 -26.828489 -17.395206
70.163483 -23.828489 -18.395205
70.322235 -24.828489 -18.395205
70.124390 -23.828489 -19.395205
70.285278 -24.828489 -19.395205
70.421387 -25.828489 -18.395205
70.445068 -26.828489 -18.395205
70.389069 -25.828489 -19.395205
70.394531 -26.828489 -19.395205
70.318115 -27.828489 -16.395206
70.202362 -28.828487 -16.395206
70.386841 -27.828489 -17.395206
70.263245 -28.828487 -17.395206
70.005066 -29.828487 -16.395206
69.683197 -30.828487 -15.765507
69.683197 -31.021008 -16.395206
70.053192 -29.828487 -17.395206
69.762543 -30.828487 -17.395206
70.388885 -27.828489 -18.395205
70.259338 -28.828487 -18.395205
70.315216 -27.828489 -19.395205
70.172821 -28.828487 -19.395205
70.035675 -29.828487 -18.395205
69.683197 -30.935467 -18.395205
69.931274 -29.828487 -19.395205
69.683197 -30.555904 -19.395205
69.683197 -30.828487 -18.700014
69.590118 -30.828487 -19.395205
70.016663 -23.828489 -20.395205
70.165649 -24.828489 -20.395205
69.856598 -23.828489 -21.395205
69.989471 -24.828489 -21.395205
70.265106 -25.828489 -20.395205
70.255829 -26.828489 -20.395205
70.070129 -25.828489 -21.395205
70.042023 -26.828489 -21.395205
69.683197 -23.828489 -22.272585
69.683197 -24.035017 -22.395205
69.769745 -24.828489 -22.395205
69.444458 -23.828489 -23.395203
69.683197 -24.828489 -22.729097
69.531647 -24.828489 -23.395203
69.832001 -25.828489 -22.395205
69.793732 -26.828489 -22.395205
69.683197 -25.828489 -22.946108
69.574768 -25.828489 -23.395203
69.683197 -26.828489 -22.793734
69.530609 -26.828489 -23.395203
70.148407 -27.828489 -20.395205
69.974030 -28.828487 -20.395205
69.915314 -27.828489 -21.395205
69.683197 -28.985439 -21.395205
69.683197 -29.828487 -20.511629
69.683197 -29.922390 -20.395205
69.373810 -30.828487 -20.395205
69.451813 -29.828487 -21.395205
69.113037 -30.828487 -21.395205
69.683197 -27.828489 -22.288912
69.452728 -28.828487 -22.395205
69.371063 -27.828489 -23.395203
69.166351 -28.828487 -23.395203
69.184723 -29.828487 -22.395205
68.856995 -30.828487 -22.395205
68.914368 -29.828487 -23.395203
68.683197 -30.828487 -23.064852
68.683197 -30.576641 -23.395203
68.606232 -30.828487 -23.395203
70.683197 -14.948244 -24.395203
70.683197 -14.949724 -25.395203
69.683197 -15.576372 -24.395203
69.337219 -15.828493 -24.395203
68.683197 -16.341127 -24.395203
69.683197 -15.485186 -25.395203
69.130981 -15.828493 -25.395203
68.683197 -16.129320 -25.395203
68.319153 -16.828493 -24.395203
68.101105 -16.828493 -25.395203
67.938965 -17.828491 -24.395203
68.025452 -18.828491 -24.395203
67.698273 -17.828491 -25.395203
67.748688 -18.828491 -25.395203
69.683197 -15.310320 -26.395203
68.732941 -15.828493 -26.395203
69.683197 -15.146013 -27.395203
68.683197 -15.650240 -27.395203
67.683197 -16.975222 -26.395203
68.426605 -15.828493 -27.395203
67.683197 -16.828493 -26.693756
67.683197 -16.536257 -27.395203
67.488220 -16.828493 -27.395203
67.350525 -17.828491 -26.395203
67.683197 -18.828491 -25.585999
67.354492 -18.828491 -26.395203
67.009277 -17.828491 -27.395203
66.985535 -18.828491 -27.395203
68.683197 -20.828491 -24.139252
68.321442 -19.828491 -24.395203
68.616150 -20.828491 -24.395203
68.029144 -19.828491 -25.395203
68.357819 -20.828491 -25.395203
68.683197 -21.108215 -24.395203
68.853088 -21.828491 -24.395203
69.059174 -22.828491 -24.395203
68.683197 -21.828491 -25.103149
68.683197 -22.149918 -25.395203
68.812225 -22.828491 -25.395203
68.611481 -21.828491 -25.395203
67.683197 -19.828491 -26.416351
68.053131 -20.828491 -26.395203
67.346985 -19.828491 -27.395203
67.683197 -20.673141 -27.395203
67.683197 -20.828491 -27.578186
68.683197 -22.828491 -25.882935
68.337952 -21.828491 -26.395203
68.539032 -22.828491 -26.395203
68.022247 -21.828491 -27.395203
68.236115 -22.828491 -27.395203
69.683197 -14.975374 -28.395203
68.683197 -15.477755 -28.395203
68.683197 -15.265535 -29.395201
68.151093 -15.828493 -28.395203
67.683197 -16.221895 -28.395203
67.195587 -16.828493 -28.395203
67.683197 -15.946016 -29.395201
66.859039 -16.828493 -29.395201
66.696838 -17.828491 -28.395203
66.683197 -18.058090 -28.395203
66.683197 -18.867661 -28.395203
66.683197 -17.069658 -29.395201
68.683197 -15.070696 -30.395201
68.683197 -14.917788 -31.395201
67.683197 -15.828493 -29.864805
67.683197 -15.696367 -30.395201
67.510529 -15.828493 -30.395201
66.683197 -16.583834 -30.395201
66.683197 -16.828493 -29.894743
67.683197 -15.456820 -31.395201
67.123260 -15.828493 -31.395201
66.683197 -16.163103 -31.395201
66.387085 -17.828491 -29.395201
66.347229 -18.828491 -29.395201
66.509338 -16.828493 -30.395201
66.110504 -16.828493 -31.395201
66.021362 -17.828491 -30.395201
65.962158 -18.828491 -30.395201
65.683197 -17.582458 -31.395201
65.683197 -17.828491 -31.190031
65.603363 -17.828491 -31.395201
65.683197 -18.828491 -31.005247
65.515778 -18.828491 -31.395201
67.028351 -19.828491 -28.395203
67.418365 -20.828491 -28.395203
66.683197 -19.827988 -29.395201
66.683197 -19.828491 -29.395933
67.054718 -20.828491 -29.395201
67.694183 -21.828491 -28.395203
67.904816 -22.828491 -28.395203
67.328583 -21.828491 -29.395201
67.683197 -22.828491 -29.005339
67.547241 -22.828491 -29.395201
66.683197 -20.996506 -30.395201
66.923553 -21.828491 -30.395201
67.162903 -22.828491 -30.395201
66.683197 -21.828491 -30.922850
66.683197 -22.582703 -31.395201
66.738983 -22.828491 -31.395201
66.253174 -19.828491 -30.395201
65.735840 -19.828491 -31.395201
66.115173 -20.828491 -31.395201
66.463165 -21.828491 -31.395201
69.216370 -23.828489 -24.395203
69.283051 -24.828489 -24.395203
68.967804 -23.828489 -25.395203
69.032349 -24.828489 -25.395203
69.308685 -25.828489 -24.395203
69.260193 -26.828489 -24.395203
69.044312 -25.828489 -25.395203
68.998260 -26.828489 -25.395203
68.691376 -23.828489 -26.395203
68.762573 -24.828489 -26.395203
68.683197 -24.828489 -26.661377
68.389862 -23.828489 -27.395203
68.475159 -24.828489 -27.395203
68.766602 -25.828489 -26.395203
68.728851 -26.828489 -26.395203
68.683197 -25.828489 -26.681396
68.488068 -25.828489 -27.395203
68.462189 -26.828489 -27.395203
69.104950 -27.828489 -24.395203
68.903656 -28.828487 -24.395203
68.871216 -27.828489 -25.395203
68.683197 -28.829769 -25.395203
68.683197 -29.828487 -24.279144
68.370514 -30.828487 -24.395203
68.429443 -29.828487 -25.395203
68.153290 -30.828487 -25.395203
68.683197 -27.399366 -26.395203
68.683197 -27.828489 -26.204987
68.475830 -28.828487 -26.395203
68.386292 -27.828489 -27.395203
68.247833 -28.828487 -27.395203
68.236511 -29.828487 -26.395203
67.962280 -30.828487 -26.395203
68.042023 -29.828487 -27.395203
67.784332 -30.828487 -27.395203
68.066864 -23.828489 -28.395203
68.170349 -24.828489 -28.395203
67.713837 -23.828489 -29.395201
67.830963 -24.828489 -29.395201
68.207153 -25.828489 -28.395203
68.189240 -26.828489 -28.395203
67.905792 -25.828489 -29.395201
67.909424 -26.828489 -29.395201
67.338928 -23.828489 -30.395201
67.683197 -24.828489 -29.823637
67.463837 -24.828489 -30.395201
66.930725 -23.828489 -31.395201
67.064880 -24.828489 -31.395201
67.683197 -25.828489 -30.094572
67.573486 -25.828489 -30.395201
67.683197 -26.828489 -30.182951
67.611328 -26.828489 -30.395201
67.188171 -25.828489 -31.395201
67.238983 -26.828489 -31.395201
68.114288 -27.828489 -28.395203
67.999847 -28.828487 -28.395203
67.828552 -27.828489 -29.395201
67.725281 -28.828487 -29.395201
67.836182 -29.828487 -28.395203
67.683197 -30.513180 -28.395203
67.683197 -30.828487 -28.015137
67.610992 -30.828487 -28.395203
67.683197 -29.224636 -29.395201
67.683197 -29.828487 -29.040251
67.598511 -29.828487 -29.395201
67.406494 -30.828487 -29.395201
67.683197 -27.828489 -29.927916
67.532562 -27.828489 -30.395201
67.422852 -28.828487 -30.395201
67.166962 -27.828489 -31.395201
67.056396 -28.828487 -31.395201
67.305176 -29.828487 -30.395201
67.134796 -30.828487 -30.395201
66.935364 -29.828487 -31.395201
66.773926 -30.828487 -31.395201
75.077446 0.171502 -32.395199
75.135643 -0.828498 -32.395199
74.742577 0.171502 -33.395199
