68.443909 55.594742 29.576263
69.011169 54.594742 29.465668
68.500458 54.594742 30.576263
69.011169 54.490097 29.576263
68.011169 55.594742 30.518402
68.011169 55.543854 30.576263
69.011169 52.314621 31.576263
69.011169 52.594742 31.360657
68.905609 52.594742 31.576263
68.498138 53.594742 31.576263
68.391876 52.594742 32.576263
67.993958 53.594742 32.576263
68.011169 54.620605 31.576263
67.506805 55.594742 31.576263
67.524292 54.594742 32.576263
67.011169 55.623672 32.576263
67.011169 58.489410 29.576263
66.610779 59.594742 29.576263
67.011169 57.442307 30.576263
66.502197 58.594742 30.576263
66.108734 59.594742 30.576263
66.465332 57.594742 31.576263
67.011169 56.594742 31.490204
66.489471 56.594742 32.576263
67.011169 56.518234 31.576263
66.011169 57.594742 32.460999
66.011169 57.482178 32.576263
66.011169 58.563919 31.576263
66.011169 59.594742 30.775574
65.589935 59.594742 31.576263
65.479492 58.594742 32.576263
65.011169 59.736984 32.576263
68.011169 56.404892 29.576263
68.011169 56.594742 29.350830
67.904572 56.594742 29.576263
67.401337 57.594742 29.576263
67.436737 56.594742 30.576263
77.011169 44.941620 17.576263
76.784637 45.594742 17.576263
77.011169 44.212845 18.576263
77.011169 44.594742 18.056335
76.879028 44.594742 18.576263
76.525146 45.594742 18.576263
77.131165 44.594742 17.576263
76.413269 46.594742 17.576263
76.011169 47.608231 17.576263
76.147186 46.594742 18.576263
76.011169 46.925140 18.576263
75.746552 47.594742 18.576263
76.609680 44.594742 19.576263
76.244507 45.594742 19.576263
76.301483 44.594742 20.576263
76.011169 45.393402 20.576263
76.011169 45.594742 20.338409
75.940399 45.594742 20.576263
76.011169 46.239273 19.576263
76.011169 46.594742 19.097168
75.868164 46.594742 19.576263
75.462250 47.594742 19.576263
75.556946 46.594742 20.576263
75.167511 47.594742 20.576263
75.011169 49.300964 18.576263
75.011169 49.594742 18.083191
74.889038 49.594742 18.576263
74.692444 50.594742 17.576263
75.011169 49.914764 17.576263
74.201996 51.594742 17.576263
74.422882 50.594742 18.576263
74.011169 51.594742 18.266937
74.011169 51.423859 18.576263
74.619965 49.594742 19.576263
75.011169 48.594742 19.696655
75.011169 48.004623 20.576263
74.760468 48.594742 20.576263
74.322876 49.594742 20.576263
74.146667 50.594742 19.576263
73.675385 51.594742 19.576263
74.011169 50.861420 19.576263
74.011169 50.292587 20.576263
74.011169 50.594742 20.032684
73.866730 50.594742 20.576263
73.410431 51.594742 20.576263
75.592560 48.594742 17.576263
75.146515 49.594742 17.576263
75.320740 48.594742 18.576263
75.011169 47.136169 21.576263
75.011169 47.594742 21.092102
74.847198 47.594742 21.576263
75.011169 46.187531 22.576263
75.011169 46.594742 22.149445
74.863129 46.594742 22.576263
74.499298 47.594742 22.576263
75.011169 44.889664 23.576263
75.011169 45.594742 23.086884
74.801636 45.594742 23.576263
75.011169 44.594742 23.777893
74.672546 44.594742 24.576263
74.365509 45.594742 24.576263
74.469910 46.594742 23.576263
74.113647 47.594742 23.576263
74.011169 46.663971 24.576263
74.011169 47.594742 23.810791
73.697845 47.594742 24.576263
76.011169 44.394958 21.576263
75.940857 44.594742 21.576263
75.585571 45.594742 21.576263
75.526733 44.594742 22.576263
75.203461 45.594742 22.576263
75.217865 46.594742 21.576263
75.103455 44.594742 23.576263
74.439545 48.594742 21.576263
74.011169 49.594742 21.559265
74.011169 49.579956 21.576263
74.095306 48.594742 22.576263
73.679016 49.594742 22.576263
74.011169 48.789627 22.576263
73.011169 51.188538 22.576263
73.011169 51.594742 22.037445
72.852051 51.594742 22.576263
73.570129 50.594742 21.576263
73.142395 51.594742 21.576263
73.258423 50.594742 22.576263
74.011169 47.889923 23.576263
74.011169 48.594742 22.831299
73.730835 48.594742 23.576263
73.326019 49.594742 23.576263
73.327240 48.594742 24.576263
73.011169 49.594742 24.411255
73.011169 49.433228 24.576263
73.011169 50.379852 23.576263
73.011169 50.594742 23.324921
72.925537 50.594742 23.576263
72.528168 51.594742 23.576263
72.568512 50.594742 24.576263
72.177124 51.594742 24.576263
73.702515 52.594742 17.576263
74.011169 51.997375 17.576263
73.208099 53.594742 17.576263
73.449615 52.594742 18.576263
73.011169 53.594742 18.417084
73.011169 53.518646 18.576263
72.719025 54.594742 17.576263
73.011169 54.001160 17.576263
72.224396 55.594742 17.576263
72.499451 54.594742 18.576263
72.011169 55.640854 18.576263
72.759491 53.594742 19.576263
73.011169 53.037979 19.576263
72.532501 53.594742 20.576263
73.011169 52.594742 20.403381
73.212341 52.594742 19.576263
73.011169 52.507751 20.576263
72.295868 54.594742 19.576263
72.011169 55.199738 19.576263
71.844727 55.594742 19.576263
72.083740 54.594742 20.576263
71.637024 55.594742 20.576263
71.758087 56.594742 17.576263
72.011169 56.074982 17.576263
71.320862 57.594742 17.576263
71.576721 56.594742 18.576263
71.154053 57.594742 18.576263
71.394867 56.594742 19.576263
71.192444 56.594742 20.576263
72.720276 52.594742 21.576263
73.011169 51.920013 21.576263
72.278534 53.594742 21.576263
72.434296 52.594742 22.576263
72.011169 53.594742 22.530365
72.011169 53.564407 22.576263
72.011169 54.220078 21.576263
72.011169 54.594742 20.921722
71.837891 54.594742 21.576263
71.394104 55.594742 21.576263
71.557831 54.594742 22.576263
71.121979 55.594742 22.576263
72.119019 52.594742 23.576263
71.694275 53.594742 23.576263
72.011169 52.838745 23.576263
72.011169 52.056793 24.576263
72.011169 52.594742 23.884583
71.785309 52.594742 24.576263
71.370361 53.594742 24.576263
71.262054 54.594742 23.576263
74.210724 44.594742 25.576263
74.011169 45.242325 25.576263
74.011169 45.594742 25.371246
73.909668 45.594742 25.576263
74.011169 44.594742 25.979919
73.725616 44.594742 26.576263
73.430084 45.594742 26.576263
73.011169 46.899582 26.576263
73.011169 47.594742 26.096558
72.790833 47.594742 26.576263
73.583466 46.594742 25.576263
73.248993 47.594742 25.576263
73.112976 46.594742 26.576263
73.011169 44.594742 27.967072
72.686127 44.594742 28.576263
72.406647 45.594742 28.576263
73.011169 45.353073 27.576263
72.942535 45.594742 27.576263
73.217957 44.594742 27.576263
73.011169 46.594742 26.795227
72.627289 46.594742 27.576263
72.304901 47.594742 27.576263
72.011169 46.594742 28.742859
72.011169 46.857285 28.576263
72.011169 47.594742 28.142120
71.798828 47.594742 28.576263
73.011169 48.301926 25.576263
73.011169 48.594742 25.341156
72.904266 48.594742 25.576263
72.547638 49.594742 25.576263
72.457458 48.594742 26.576263
72.119354 49.594742 26.576263
72.182007 50.594742 25.576263
72.011169 51.039764 25.576263
72.011169 51.594742 25.075867
71.816315 51.594742 25.576263
72.011169 49.938065 26.576263
72.011169 50.594742 25.994598
71.785248 50.594742 26.576263
71.440430 51.594742 26.576263
72.011169 48.540588 27.576263
72.011169 49.594742 26.839600
71.675415 49.594742 27.576263
71.505615 48.594742 28.576263
71.222900 49.594742 28.576263
71.369110 50.594742 27.576263
72.011169 44.594742 29.702850
72.011169 44.891678 29.576263
72.011169 45.594742 29.279724
71.822510 45.594742 29.576263
71.452148 44.594742 30.576263
71.209595 45.594742 30.576263
71.528748 46.594742 29.576263
71.269470 47.594742 29.576263
71.433350 52.594742 25.576263
71.087677 52.594742 26.576263
70.353912 60.594742 17.576263
70.311707 61.594742 17.576263
70.159729 60.594742 18.576263
70.122589 61.594742 18.576263
70.528046 62.594742 17.576263
71.011169 63.456253 17.576263
70.374664 62.594742 18.576263
71.011169 63.581223 18.576263
70.011169 60.220383 19.576263
70.011169 60.594742 19.269012
69.938324 60.594742 19.576263
69.930786 61.594742 19.576263
70.011169 61.594742 19.174042
69.705872 60.594742 20.576263
69.718018 61.594742 20.576263
70.011169 62.029068 19.576263
70.226837 62.594742 19.576263
70.897278 63.594742 19.576263
71.011169 63.594742 18.691772
70.011169 62.594742 20.575928
70.011169 62.594894 20.576263
70.676636 63.594742 20.576263
71.011169 63.972977 20.576263
69.437836 60.594742 21.576263
69.442078 61.594742 21.576263
69.123993 60.594742 22.576263
69.103973 61.594742 22.576263
69.712219 62.594742 21.576263
70.011169 63.165543 21.576263
70.339050 63.594742 21.576263
69.346130 62.594742 22.576263
70.011169 63.594742 22.368927
70.011169 63.703644 22.576263
69.011169 60.594742 22.915009
68.786743 60.594742 23.576263
68.750702 61.594742 23.576263
69.011169 61.594742 22.834534
68.423889 60.594742 24.576263
68.363800 61.594742 24.576263
69.011169 62.594742 23.385162
68.936981 62.594742 23.576263
69.011169 62.805664 23.576263
68.525208 62.594742 24.576263
69.011169 63.668823 24.576263
69.492645 63.594742 23.576263
71.011169 64.260132 21.576263
71.011169 64.594742 22.626831
70.011169 64.194550 23.576263
70.488312 64.594742 23.576263
71.011169 65.016769 23.576263
70.011169 64.594742 24.296906
69.834747 64.594742 24.576263
70.011169 64.770996 24.576263
70.871613 65.594742 24.576263
71.011169 65.594742 24.408234
67.011169 59.779648 28.576263
67.011169 60.594742 28.082031
66.801270 60.594742 28.576263
66.625763 61.594742 28.576263
67.011169 61.594742 27.743500
66.563690 62.594742 28.576263
67.011169 62.594742 27.700134
67.011169 63.594742 27.902527
66.627960 63.594742 28.576263
68.011169 60.594742 25.661346
68.011169 60.791000 25.576263
67.954865 61.594742 25.576263
67.647522 60.594742 26.576263
67.529144 61.594742 26.576263
68.011169 62.357162 25.576263
68.011169 62.594742 25.656708
68.407104 63.594742 25.576263
67.571808 62.594742 26.576263
68.011169 63.594742 26.216003
67.809204 63.594742 26.576263
67.233490 60.594742 27.576263
67.214661 63.594742 27.576263
67.011169 64.594742 28.287720
66.825684 64.594742 28.576263
67.011169 65.275360 28.576263
69.011169 64.544983 25.576263
68.011169 64.101410 26.576263
68.273163 64.594742 26.576263
69.011169 64.594742 25.625916
68.885254 65.594742 26.576263
69.887268 65.594742 25.576263
70.904755 66.594742 25.576263
69.011169 65.774673 26.576263
69.739258 66.594742 26.576263
70.011169 66.594742 26.343414
70.011169 66.869507 26.576263
71.011169 67.594742 26.286682
70.685333 67.594742 26.576263
67.528259 64.594742 27.576263
68.011169 64.594742 26.921082
67.961975 65.594742 27.576263
67.011169 65.594742 28.708740
68.553802 66.594742 27.576263
69.011169 66.594742 27.179626
69.011169 67.172745 27.576263
68.011169 66.594742 28.061859
67.493622 66.594742 28.576263
68.011169 67.578903 28.576263
69.011169 67.594742 27.850739
68.021149 67.594742 28.576263
70.011169 67.594742 27.130890
69.407166 67.594742 27.576263
66.313751 60.594742 29.576263
66.011169 61.594742 29.739960
66.011169 59.899780 30.576263
66.011169 60.594742 30.151581
65.796143 60.594742 30.576263
65.566406 61.594742 30.576263
66.011169 62.479828 29.576263
66.011169 63.466675 29.576263
66.011169 63.594742 29.591980
65.445953 62.594742 30.576263
65.424042 63.594742 30.576263
65.011169 60.594742 32.010834
64.707336 60.594742 32.576263
64.410736 61.594742 32.576263
65.011169 61.544022 31.576263
65.251953 60.594742 31.576263
65.011169 62.594742 31.328461
64.862946 62.594742 31.576263
64.824097 63.594742 31.576263
65.011169 63.594742 31.268768
64.245636 62.594742 32.576263
64.189606 63.594742 32.576263
66.150330 64.594742 29.576263
66.350983 65.594742 29.576263
66.011169 64.594742 29.780701
65.494385 64.594742 30.576263
66.011169 65.594742 30.027863
65.620239 65.594742 30.576263
67.011169 66.594742 29.090302
66.581268 66.594742 29.576263
66.898712 67.594742 29.576263
66.011169 66.594742 30.260010
65.762451 66.594742 30.576263
65.936584 67.594742 30.576263
65.011169 64.594742 31.321960
64.844971 64.594742 31.576263
65.011169 65.594742 31.411133
64.891113 65.594742 31.576263
64.152191 64.594742 32.576263
64.135925 65.594742 32.576263
64.946747 66.594742 31.576263
64.139984 66.594742 32.576263
64.144958 67.594742 32.576263
65.011169 67.566895 31.576263
65.011169 67.594742 31.578796
71.011169 67.977921 26.576263
68.838898 68.594742 28.576263
70.011169 68.209442 27.576263
70.423981 68.594742 27.576263
71.011169 68.594742 27.107727
71.011169 69.177704 27.576263
70.011169 68.594742 27.878448
69.011169 68.757568 28.576263
70.011169 69.588333 28.576263
71.011169 69.594742 27.851685
70.017517 69.594742 28.576263
70.844238 70.594742 28.576263
71.011169 70.594742 28.433014
71.011169 70.890640 28.576263
66.011169 67.945572 30.576263
67.011169 67.892517 29.576263
67.011169 68.594742 29.862396
66.197327 68.594742 30.576263
66.611725 69.594742 30.576263
67.011169 69.594742 30.278931
67.011169 70.199234 30.576263
65.011169 68.594742 31.705872
64.189392 68.594742 32.576263
65.011169 69.594742 31.945770
64.357086 69.594742 32.576263
66.011169 68.594742 30.745270
66.011169 69.594742 31.062927
65.424805 69.594742 31.576263
64.746063 70.594742 32.576263
65.011169 70.594742 32.351166
65.011169 70.986130 32.576263
65.979218 70.594742 31.576263
67.011169 70.594742 30.841064
66.921051 71.594742 31.576263
66.011169 71.594742 32.217651
65.525452 71.594742 32.576263
68.011169 68.594742 29.094055
67.374390 68.594742 29.576263
68.011169 69.550278 29.576263
69.011169 69.594742 29.076477
68.051819 69.594742 29.576263
69.011169 70.370270 29.576263
67.452332 70.594742 30.576263
68.011169 70.594742 30.249969
69.011169 70.594742 29.724854
68.011169 71.057327 30.576263
69.011169 71.594742 30.250610
68.472443 71.594742 30.576263
69.306824 70.594742 29.576263
70.011169 70.594742 29.187622
70.011169 71.487122 29.576263
71.011169 71.594742 28.812927
70.055450 71.594742 29.576263
68.011169 71.594742 30.863953
66.011169 72.238953 32.576263
67.011169 72.594742 31.995422
66.222168 72.594742 32.576263
66.711914 73.594742 32.576263
67.011169 73.594742 32.362457
67.011169 74.260818 32.576263
69.011169 72.558060 30.576263
70.378143 72.594742 29.576263
71.011169 72.594742 29.060303
70.647308 73.594742 29.576263
71.011169 73.594742 29.276550
70.011169 72.594742 29.864746
69.026581 72.594742 30.576263
69.406952 73.594742 30.576263
70.011169 73.594742 30.100342
70.950256 74.594742 29.576263
69.751556 74.594742 30.576263
70.011169 74.594742 30.364227
70.011169 75.186401 30.576263
67.603851 72.594742 31.576263
68.011169 72.594742 31.280792
68.011169 73.457581 31.576263
69.011169 73.594742 30.871674
68.067383 73.594742 31.576263
68.464874 74.594742 31.576263
69.011169 74.594742 31.159332
68.011169 74.594742 31.932404
67.176666 74.594742 32.576263
72.011169 64.382233 17.576263
72.299133 64.594742 17.576263
73.011169 65.107254 17.576263
72.011169 64.467728 18.576263
72.173615 64.594742 18.576263
73.011169 65.247879 18.576263
73.627350 65.594742 17.576263
73.430145 65.594742 18.576263
74.011169 65.943726 17.576263
74.528534 66.594742 17.576263
75.011169 67.377731 17.576263
74.011169 66.143616 18.576263
74.362091 66.594742 18.576263
75.011169 67.594742 18.416565
74.981445 67.594742 18.576263
72.011169 64.594742 19.399567
71.972839 64.594742 19.576263
73.011169 65.481613 19.576263
71.737488 64.594742 20.576263
72.011169 64.823334 20.576263
73.011169 65.594742 20.001221
72.852173 65.594742 20.576263
73.011169 65.744629 20.576263
74.011169 66.594742 19.724213
74.697052 67.594742 19.576263
73.733124 66.594742 20.576263
74.011169 66.999146 20.576263
74.370758 67.594742 20.576263
75.131531 67.594742 17.576263
71.441071 64.594742 21.576263
72.011169 65.073837 21.576263
72.537231 65.594742 21.576263
72.011169 65.464371 22.576263
73.011169 66.107132 21.576263
73.011169 66.648575 22.576263
73.380096 66.594742 21.576263
74.011169 67.594742 21.617737
73.638153 67.594742 22.576263
72.011169 65.594742 22.836853
71.602783 65.594742 23.576263
72.011169 66.030701 23.576263
72.455383 66.594742 23.576263
73.011169 67.414703 23.576263
71.804749 66.594742 24.576263
72.011169 66.594742 24.279602
72.011169 66.867386 24.576263
72.475769 67.594742 24.576263
73.011169 67.594742 23.762085
73.126801 67.594742 23.576263
75.011169 68.124039 19.576263
75.011169 68.645386 20.576263
75.764130 68.594742 17.576263
76.011169 68.997437 17.576263
76.279327 69.594742 17.576263
75.587738 68.594742 18.576263
76.011169 69.383286 18.576263
76.094696 69.594742 18.576263
76.649841 70.594742 17.576263
77.011169 71.594742 17.085541
76.950470 71.594742 17.576263
76.455872 70.594742 18.576263
76.757355 71.594742 18.576263
75.302307 68.594742 19.576263
76.011169 69.594742 18.924500
75.806488 69.594742 19.576263
75.463715 69.594742 20.576263
76.011169 70.143356 19.576263
76.166077 70.594742 19.576263
76.467010 71.594742 19.576263
76.011169 70.594742 20.037598
75.832947 70.594742 20.576263
76.011169 71.173615 20.576263
76.119293 71.594742 20.576263
77.011169 71.815552 17.576263
77.011169 72.594742 18.630829
77.223206 72.594742 17.576263
77.477600 73.594742 17.576263
77.278534 73.594742 18.576263
77.721191 74.594742 17.576263
77.526001 74.594742 18.576263
76.736359 72.594742 19.576263
76.987000 73.594742 19.576263
76.378326 72.594742 20.576263
76.639130 73.594742 20.576263
77.011169 74.594742 20.266479
76.904144 74.594742 20.576263
77.011169 74.994812 20.576263
77.240540 74.594742 19.576263
74.623413 68.594742 21.576263
75.011169 69.349655 21.576263
74.011169 68.228394 22.576263
74.228027 68.594742 22.576263
74.702179 69.594742 22.576263
75.011169 69.594742 21.818420
75.011169 70.518539 22.576263
73.011169 68.405869 24.576263
73.762482 68.594742 23.576263
74.011169 68.594742 23.080383
74.011169 69.035614 23.576263
74.246979 69.594742 23.576263
73.145569 68.594742 24.576263
73.705933 69.594742 24.576263
74.011169 69.594742 24.034790
74.575409 70.594742 23.576263
75.011169 70.594742 22.630127
75.011169 71.594742 23.157104
74.804291 71.594742 23.576263
74.011169 70.594742 24.630035
74.271545 71.594742 24.576263
75.104218 69.594742 21.576263
75.447906 70.594742 21.576263
75.718231 71.594742 21.576263
76.011169 71.594742 20.881317
75.269287 71.594742 22.576263
74.990021 72.594742 23.576263
74.466095 72.594742 24.576263
75.011169 73.594742 23.968292
74.692139 73.594742 24.576263
74.969238 74.594742 24.576263
75.955353 72.594742 21.576263
76.011169 72.803467 21.576263
76.217590 73.594742 21.576263
75.480835 72.594742 22.576263
76.011169 73.594742 22.001892
75.739227 73.594742 22.576263
76.504089 74.594742 21.576263
76.011169 74.594742 22.616974
75.224762 73.594742 23.576263
75.512177 74.594742 23.576263
71.697906 67.594742 25.576263
72.011169 67.594742 25.211487
72.011169 68.067215 25.576263
72.404633 68.594742 25.576263
73.011169 68.594742 24.777466
73.011169 69.490295 25.576263
71.559845 68.594742 26.576263
72.011169 68.594742 26.060547
72.011169 69.156387 26.576263
72.284302 69.594742 26.576263
73.011169 69.594742 25.649017
73.011169 70.594742 26.206146
72.734039 70.594742 26.576263
73.011169 71.594742 26.582947
73.431519 70.594742 25.576263
74.011169 71.594742 25.052368
73.688324 71.594742 25.576263
72.011169 69.594742 26.901276
71.330750 69.594742 27.576263
71.888611 70.594742 27.576263
72.011169 70.893616 27.576263
72.216949 71.594742 27.576263
71.266937 71.594742 28.576263
72.011169 71.594742 27.802460
74.011169 72.594742 25.383392
73.888824 72.594742 25.576263
74.011169 73.170898 25.576263
74.011169 73.594742 25.724884
73.224731 72.594742 26.576263
73.444702 73.594742 26.576263
74.385956 74.594742 25.576263
74.011169 74.594742 26.143372
73.719604 74.594742 26.576263
73.011169 72.594742 26.880310
72.454498 72.594742 27.576263
73.011169 73.594742 27.173828
72.683441 73.594742 27.576263
72.011169 72.594742 28.074554
71.535675 72.594742 28.576263
72.011169 73.594742 28.327789
71.773529 73.594742 28.576263
72.957489 74.594742 27.576263
72.011169 74.594742 28.611450
62.011169 11.884003 38.576263
63.011169 12.594742 38.063660
62.340149 12.594742 38.576263
62.760590 13.594742 38.576263
63.011169 13.594742 38.384521
63.011169 14.302490 38.576263
61.004761 12.594742 39.576263
59.672058 12.594742 40.576263
60.011169 12.594742 40.320465
60.011169 13.401199 40.576263
61.011169 13.594742 39.909973
60.011169 13.594742 40.634308
62.011169 12.594742 38.822205
61.458862 13.594742 39.576263
62.011169 13.594742 39.150787
60.541962 14.594742 40.576263
61.011169 14.594742 40.230927
60.933838 15.594742 40.576263
61.839539 14.594742 39.576263
62.011169 14.594742 39.437897
63.011169 14.594742 38.655945
62.011169 15.055252 39.576263
63.011169 15.594742 38.938629
62.189941 15.594742 39.576263
62.011169 15.594742 39.720276
62.535919 16.594742 39.576263
63.011169 16.594742 39.207764
62.855103 17.594742 39.576263
63.011169 17.594742 39.452881
61.011169 15.829559 40.576263
62.011169 16.594742 39.999268
61.282074 16.594742 40.576263
61.618713 17.594742 40.576263
62.011169 17.594742 40.262848
63.011169 18.141953 39.576263
61.927612 18.594742 40.576263
63.011169 18.594742 39.685028
62.011169 18.864670 40.576263
63.011169 19.594742 39.922821
62.201202 19.594742 40.576263
67.011169 12.306488 34.576263
64.840973 12.594742 36.576263
65.011169 12.594742 36.439392
65.011169 12.989334 36.576263
66.011169 12.541534 35.576263
67.011169 12.594742 34.695282
66.011169 12.594742 35.597717
66.413940 13.594742 35.576263
67.011169 13.594742 35.048279
66.011169 13.594742 35.921967
65.227478 13.594742 36.576263
66.743866 14.594742 35.576263
67.011169 14.594742 35.348053
67.011169 15.594742 35.603699
65.551056 14.594742 36.576263
66.011169 14.594742 36.195557
65.876373 15.594742 36.576263
68.011169 12.232864 33.576263
68.152191 12.594742 33.576263
68.509979 13.594742 33.576263
69.011169 13.594742 33.053619
68.011169 12.594742 33.716187
67.509094 13.594742 34.576263
68.011169 13.594742 34.079742
69.011169 14.594742 33.396698
68.844452 14.594742 33.576263
69.011169 15.169266 33.576263
67.852966 14.594742 34.576263
68.011169 14.594742 34.423492
68.011169 15.119308 34.576263
68.011169 15.594742 34.686890
69.011169 15.594742 33.682861
66.011169 16.034164 36.576263
67.011169 16.594742 35.855713
66.189026 16.594742 36.576263
66.463898 17.594742 36.576263
67.011169 17.594742 36.093536
66.722778 18.594742 36.576263
67.011169 18.594742 36.320801
66.956512 19.594742 36.576263
68.347290 16.594742 34.576263
69.011169 16.594742 33.899017
68.569550 17.594742 34.576263
69.011169 17.594742 34.109894
70.011169 16.594742 32.850983
69.322998 16.594742 33.576263
70.011169 17.594742 33.060730
69.517975 17.594742 33.576263
69.011169 18.594742 34.363342
68.813721 18.594742 34.576263
69.011169 19.594742 34.595337
70.011169 18.594742 33.289246
69.740570 18.594742 33.576263
69.953522 19.594742 33.576263
67.316864 16.594742 35.576263
68.011169 16.594742 34.911072
67.572266 17.594742 35.576263
68.011169 17.594742 35.146240
67.824005 18.594742 35.576263
68.011169 18.594742 35.393616
68.011169 19.594742 35.604126
63.632446 12.594742 37.576263
64.011169 12.594742 37.262238
64.011169 13.570038 37.576263
65.011169 13.594742 36.745850
64.018402 13.594742 37.576263
64.340118 14.594742 37.576263
65.011169 14.594742 37.014008
64.702209 15.594742 37.576263
65.011169 15.594742 37.310638
64.011169 14.594742 37.854614
63.484283 15.594742 38.576263
64.011169 15.594742 38.154877
65.011169 16.565063 37.576263
63.812775 16.594742 38.576263
64.011169 16.594742 38.416901
64.011169 17.262726 38.576263
65.011169 17.594742 37.826294
64.011169 17.594742 38.650452
66.011169 16.594742 36.728943
65.308289 17.594742 37.576263
66.011169 17.594742 36.971344
64.386932 18.594742 38.576263
65.011169 18.594742 38.069000
64.657532 19.594742 38.576263
65.011169 19.594742 38.288544
65.594574 18.594742 37.576263
66.011169 18.594742 37.210022
65.843384 19.594742 37.576263
66.011169 19.594742 37.427612
64.011169 18.594742 38.876678
63.445526 19.594742 39.576263
64.011169 19.594742 39.106598
62.453888 20.594742 40.576263
63.011169 20.594742 40.146332
62.694733 21.594742 40.576263
63.011169 21.594742 40.334930
62.922485 22.594742 40.576263
70.011169 19.941666 33.576263
70.011169 20.594742 33.699524
71.011169 21.594742 32.751892
70.289825 21.594742 33.576263
69.191559 20.594742 34.576263
70.011169 21.594742 33.881989
69.363342 21.594742 34.576263
71.011169 22.594742 32.885345
70.413055 22.594742 33.576263
71.011169 23.594742 33.003876
70.509613 23.594742 33.576263
70.011169 22.594742 34.022675
69.500885 22.594742 34.576263
70.011169 23.594742 34.131317
69.605743 23.594742 34.576263
69.011169 20.594742 34.765167
68.204803 20.594742 35.576263
69.011169 21.594742 34.941925
68.376984 21.594742 35.576263
67.011169 19.883682 36.576263
68.011169 20.594742 35.762939
67.011169 20.594742 36.701294
67.338715 21.594742 36.576263
68.011169 21.594742 35.931854
68.533173 22.594742 35.576263
69.011169 22.594742 35.090454
68.660950 23.594742 35.576263
69.011169 23.594742 35.209412
67.527649 22.594742 36.576263
68.011169 22.594742 36.099243
67.688324 23.594742 36.576263
68.011169 23.594742 36.246216
71.011169 24.594742 33.107880
70.597504 24.594742 33.576263
71.011169 25.594742 33.213318
70.693848 25.594742 33.576263
70.011169 24.594742 34.232361
69.700317 24.594742 34.576263
70.011169 25.594742 34.346924
69.804504 25.594742 34.576263
71.011169 26.594742 33.297211
70.771179 26.594742 33.576263
71.011169 27.594742 33.363037
70.830322 27.594742 33.576263
69.894379 26.594742 34.576263
69.964661 27.594742 34.576263
69.011169 24.594742 35.315155
68.765594 24.594742 35.576263
69.011169 25.594742 35.416748
68.858032 25.594742 35.576263
68.011169 24.594742 36.358978
67.799591 24.594742 36.576263
68.011169 25.594742 36.433716
67.868744 25.594742 36.576263
68.943329 26.594742 35.576263
67.939667 26.594742 36.576263
68.011169 27.310623 36.576263
69.011169 27.397614 35.576263
68.011169 27.594742 36.602905
69.011169 27.594742 35.592377
64.904816 20.594742 38.576263
66.011169 20.417099 37.576263
66.047546 20.594742 37.576263
66.231171 21.594742 37.576263
67.011169 21.594742 36.874207
65.011169 21.079758 38.576263
66.011169 21.594742 37.774902
65.011169 21.594742 38.661621
66.426056 22.594742 37.576263
67.011169 22.594742 37.057709
66.614532 23.594742 37.576263
67.011169 23.594742 37.223969
65.283936 22.594742 38.576263
66.011169 22.594742 37.943512
65.461884 23.594742 38.576263
66.011169 23.594742 38.106232
63.723206 20.594742 39.576263
64.011169 20.594742 39.331696
63.940247 21.594742 39.576263
64.011169 22.009598 39.576263
65.011169 22.594742 38.807404
64.011169 22.594742 39.666260
64.277710 23.594742 39.576263
65.011169 23.594742 38.953339
63.011169 23.024353 40.576263
64.011169 23.594742 39.806976
63.011169 23.594742 40.647064
66.748199 24.594742 37.576263
67.011169 24.594742 37.338348
66.825806 25.594742 37.576263
67.011169 25.594742 37.404633
65.632446 24.594742 38.576263
66.011169 24.594742 38.242218
65.748779 25.594742 38.576263
66.011169 25.594742 38.336792
66.900360 26.594742 37.576263
66.011169 26.594742 38.411224
65.832062 26.594742 38.576263
65.915405 27.594742 38.576263
66.998688 27.594742 37.576263
64.448517 24.594742 39.576263
65.011169 24.594742 39.105103
64.592102 25.594742 39.576263
65.011169 25.594742 39.221741
63.253540 24.594742 40.576263
64.011169 24.594742 39.946533
63.404419 25.594742 40.576263
64.011169 25.594742 40.071503
64.702667 26.594742 39.576263
65.011169 26.594742 39.308136
64.810699 27.594742 39.576263
65.011169 27.594742 39.395782
63.541595 26.594742 40.576263
64.011169 26.594742 40.176025
63.676422 27.594742 40.576263
64.011169 27.594742 40.284454
57.011169 12.594742 42.586060
58.011169 11.892212 41.576263
59.011169 12.594742 41.049164
58.306854 12.594742 41.576263
58.729614 13.594742 41.576263
59.011169 13.594742 41.369476
58.011169 12.594742 41.809753
57.427399 13.594742 42.576263
58.011169 13.594742 42.127289
59.011169 14.214783 41.576263
57.824951 14.594742 42.576263
58.011169 14.594742 42.438629
59.011169 14.594742 41.712433
58.011169 15.027893 42.576263
59.011169 15.594742 42.038483
58.241882 15.594742 42.576263
55.730438 12.594742 43.576263
56.011169 12.594742 43.355103
56.011169 13.314651 43.576263
57.011169 13.594742 42.888184
56.011169 13.594742 43.651611
56.478790 14.594742 43.576263
57.011169 14.594742 43.180145
56.848785 15.594742 43.576263
57.011169 15.594742 43.458588
56.011169 14.594742 43.934479
56.011169 15.594742 44.210083
55.527527 15.594742 44.576263
58.011169 15.594742 42.737488
60.011169 14.594742 40.977417
59.208405 14.594742 41.576263
59.657990 15.594742 41.576263
60.011169 15.594742 41.300385
58.648285 16.594742 42.576263
59.011169 16.594742 42.323425
59.008362 17.594742 42.576263
57.011169 16.042923 43.576263
55.873810 16.594742 44.576263
57.011169 16.594742 43.736115
56.011169 16.970596 44.576263
57.011169 17.594742 44.021820
56.232269 17.594742 44.576263
58.011169 16.594742 43.023712
57.238770 16.594742 43.576263
57.627625 17.594742 43.576263
58.011169 17.594742 43.292389
56.588867 18.594742 44.576263
57.011169 18.594742 44.282166
56.901276 19.594742 44.576263
57.947601 18.594742 43.576263
59.011169 18.594742 42.784241
58.011169 18.799973 43.576263
59.011169 19.594742 42.971283
58.217834 19.594742 43.576263
58.011169 19.594742 43.740967
60.009338 16.594742 41.576263
61.011169 16.594742 40.778595
60.335724 17.594742 41.576263
61.011169 17.594742 41.046448
60.011169 17.594742 41.831573
60.648285 18.594742 41.576263
61.011169 18.594742 41.297241
60.910889 19.594742 41.576263
59.306519 18.594742 42.576263
60.011169 18.594742 42.060181
59.552887 19.594742 42.576263
60.011169 19.594742 42.241699
62.011169 19.594742 40.727997
56.011169 17.594742 44.736816
56.011169 18.594742 44.989319
55.190857 18.594742 45.576263
55.489838 19.594742 45.576263
56.011169 19.594742 45.206024
58.477051 20.594742 43.576263
59.011169 20.594742 43.159058
58.709717 21.594742 43.576263
59.011169 21.594742 43.339203
57.011169 19.969604 44.576263
58.011169 20.594742 43.958710
57.212036 20.594742 44.576263
57.478424 21.594742 44.576263
58.011169 21.594742 44.154663
58.947662 22.594742 43.576263
57.690460 22.594742 44.576263
58.011169 22.594742 44.325378
57.896423 23.594742 44.576263
59.011169 22.835571 43.576263
59.011169 23.594742 43.712128
59.778168 20.594742 42.576263
60.011169 20.594742 42.404663
61.011169 20.045486 41.576263
61.011169 20.594742 41.673218
59.999176 21.594742 42.576263
61.011169 21.594742 41.843384
62.011169 20.594742 40.920715
61.385315 21.594742 41.576263
62.011169 21.594742 41.105835
60.252045 22.594742 42.576263
61.011169 22.594742 42.025360
60.495483 23.594742 42.576263
61.011169 23.594742 42.196960
61.631165 22.594742 41.576263
62.011169 22.594742 41.287811
61.837646 23.594742 41.576263
62.011169 23.594742 41.440735
60.011169 22.594742 42.753326
60.011169 23.594742 42.940613
59.191193 23.594742 43.576263
58.011169 24.181564 44.576263
59.011169 24.594742 43.876007
58.011169 24.594742 44.641571
58.282410 25.594742 44.576263
59.011169 25.594742 44.023682
58.452209 26.594742 44.576263
59.011169 26.594742 44.153137
58.614532 27.594742 44.576263
59.011169 27.594742 44.277435
60.686890 24.594742 42.576263
61.011169 24.594742 42.331268
60.835175 25.594742 42.576263
61.011169 25.594742 42.440918
61.985931 24.594742 41.576263
63.011169 24.594742 40.760101
63.011169 25.594742 40.876099
62.011169 25.594742 41.659515
60.975067 26.594742 42.576263
62.258942 26.594742 41.576263
63.011169 26.594742 40.992157
62.422943 27.594742 41.576263
63.011169 27.594742 41.116241
62.011169 26.594742 41.773895
61.011169 26.801025 42.576263
62.011169 27.594742 41.906158
61.011169 27.594742 42.681488
59.408081 24.594742 43.576263
60.011169 24.594742 43.100006
59.588623 25.594742 43.576263
60.011169 25.594742 43.232269
59.736145 26.594742 43.576263
60.011169 26.594742 43.347961
59.891052 27.594742 43.576263
55.788055 20.594742 45.576263
56.011169 20.594742 45.418335
57.011169 20.594742 44.713470
56.011169 21.351074 45.576263
57.011169 21.594742 44.908569
56.011169 21.594742 45.617218
56.288696 22.594742 45.576263
57.011169 22.594742 45.065826
56.503845 23.594742 45.576263
57.011169 23.594742 45.220825
56.011169 22.594742 45.770844
56.011169 23.594742 45.923035
56.733154 24.594742 45.576263
57.011169 24.594742 45.382507
56.946075 25.594742 45.576263
56.011169 24.594742 46.078796
55.268097 24.594742 46.576263
55.501190 25.594742 46.576263
56.011169 25.594742 46.231628
58.011169 25.594742 44.783722
55.736328 26.594742 46.576263
56.011169 26.594742 46.385773
57.011169 25.940155 45.576263
57.011169 26.594742 45.667877
55.958649 27.594742 46.576263
57.011169 27.594742 45.807098
58.011169 26.594742 44.916077
57.324799 27.594742 45.576263
58.011169 27.594742 45.046753
71.011169 28.594742 33.420837
70.880951 28.594742 33.576263
70.882324 29.594742 33.576263
71.011169 29.594742 33.422028
70.011169 28.307663 34.576263
70.011169 28.594742 34.590698
70.011169 29.594742 34.592804
70.877930 30.594742 33.576263
71.011169 30.594742 33.416504
71.011169 31.594742 33.415192
70.876984 31.594742 33.576263
70.011169 30.594742 34.585144
70.011169 31.594742 34.588715
68.011169 28.594742 36.690369
69.011169 28.594742 35.667206
68.164795 29.594742 36.576263
69.011169 29.594742 35.686737
69.011169 30.594742 35.670288
68.011169 30.594742 36.716553
69.011169 31.594742 35.647644
68.011169 31.594742 36.653778
70.854187 32.594742 33.576263
71.011169 32.594742 33.391968
70.790619 33.594742 33.576263
71.011169 33.594742 33.324738
70.011169 31.974777 34.576263
69.972565 32.594742 34.576263
69.880188 33.594742 34.576263
70.673309 34.594742 33.576263
71.011169 34.594742 33.188232
70.564758 35.594742 33.576263
71.011169 35.594742 33.051483
70.011169 34.594742 34.326294
69.787201 34.594742 34.576263
69.704132 35.594742 34.576263
70.011169 35.594742 34.219208
68.011169 32.667313 36.576263
69.011169 32.580978 35.576263
68.923676 33.594742 35.576263
67.972382 33.594742 36.576263
69.011169 34.594742 35.424713
68.872650 34.594742 35.576263
68.817169 35.594742 35.576263
69.011169 35.594742 35.359314
67.953186 34.594742 36.576263
67.908752 35.594742 36.576263
67.011169 28.594742 37.652527
66.000641 28.594742 38.576263
66.011169 29.594742 38.628998
67.011169 29.594742 37.713806
66.011169 30.594742 38.648102
67.011169 30.594742 37.711792
66.011169 31.594742 38.631500
67.011169 31.594742 37.649994
64.899292 28.594742 39.576263
63.788391 28.594742 40.576263
64.011169 28.594742 40.376892
63.860382 29.594742 40.576263
64.011169 29.594742 40.438751
64.960480 29.594742 39.576263
63.898682 30.594742 40.576263
64.995392 30.594742 39.576263
65.011169 31.301666 39.576263
65.011169 31.594742 39.579285
63.921844 31.594742 40.576263
67.156982 29.594742 37.576263
68.011169 29.594742 36.733826
66.011169 32.594742 38.616943
67.011169 32.594742 37.598663
66.011169 33.594742 38.625153
67.011169 33.594742 37.590179
66.011169 34.594742 38.644379
67.011169 34.594742 37.592590
67.011169 35.177002 37.576263
66.011169 35.594742 38.635834
66.994049 35.594742 37.576263
65.011169 32.594742 39.589935
63.952484 32.594742 40.576263
65.011169 33.594742 39.617126
64.008667 33.594742 40.576263
65.011169 34.594742 39.653320
64.011169 34.594742 40.621155
64.011169 35.594742 40.637512
65.011169 35.594742 39.662231
70.467987 36.594742 33.576263
71.011169 36.594742 32.925507
70.365204 37.594742 33.576263
71.011169 37.594742 32.790070
69.617950 36.594742 34.576263
70.011169 36.594742 34.111420
69.530609 37.594742 34.576263
70.011169 37.594742 33.997925
70.273346 38.594742 33.576263
70.163452 39.594742 33.576263
69.448761 38.594742 34.576263
70.011169 38.594742 33.893677
69.348114 39.594742 34.576263
70.011169 39.594742 33.764557
68.750702 36.594742 35.576263
69.011169 36.594742 35.278595
68.676971 37.594742 35.576263
69.011169 37.594742 35.189728
68.011169 36.594742 36.401489
67.855774 36.594742 36.576263
67.792633 37.594742 36.576263
68.011169 37.594742 36.327576
68.590302 38.594742 35.576263
69.011169 38.594742 35.094147
68.489685 39.594742 35.576263
69.011169 39.594742 34.979614
67.699341 38.594742 36.576263
68.011169 38.594742 36.222229
68.011169 39.594742 36.108948
67.600494 39.594742 36.576263
70.011169 40.732132 33.576263
70.011169 41.594742 33.420593
69.886383 41.594742 33.576263
69.227142 40.594742 34.576263
69.011169 41.594742 34.680298
68.957489 42.594742 34.576263
69.011169 43.594742 34.322296
68.822876 43.594742 34.576263
69.730682 42.594742 33.576263
70.011169 42.594742 33.219116
69.574860 43.594742 33.576263
70.011169 43.594742 33.003021
69.011169 42.203690 34.576263
68.381561 40.594742 35.576263
69.011169 40.594742 34.841309
68.266785 41.594742 35.576263
67.511505 40.594742 36.576263
68.011169 40.594742 35.997253
67.417114 41.594742 36.576263
68.011169 41.594742 35.873260
68.150604 42.594742 35.576263
68.011169 43.594742 35.602997
67.312958 42.594742 36.576263
68.011169 42.594742 35.740692
67.209839 43.594742 36.576263
66.946594 36.594742 37.576263
66.011169 36.594742 38.595886
66.011169 36.992874 38.576263
66.894867 37.594742 37.576263
65.980530 37.594742 38.576263
67.011169 38.594742 37.353363
66.809479 38.594742 37.576263
66.718475 39.594742 37.576263
67.011169 39.594742 37.249695
65.901184 38.594742 38.576263
66.011169 39.594742 38.359650
65.814697 39.594742 38.576263
64.011169 36.594742 40.633057
65.011169 36.594742 39.641327
64.011169 37.594742 40.600647
65.011169 37.594742 39.594238
65.011169 37.883987 39.576263
64.011169 38.154877 40.576263
64.960449 38.594742 39.576263
63.988434 38.594742 40.576263
64.884735 39.594742 39.576263
63.932404 39.594742 40.576263
66.642090 40.594742 37.576263
67.011169 40.594742 37.160889
66.558838 41.594742 37.576263
67.011169 41.594742 37.061462
66.011169 40.594742 38.279694
65.743652 40.594742 38.576263
65.671143 41.594742 38.576263
66.011169 41.594742 38.192993
66.464294 42.594742 37.576263
67.011169 42.594742 36.945190
66.371033 43.594742 37.576263
67.011169 43.594742 36.825562
65.591675 42.594742 38.576263
66.011169 42.594742 38.094788
65.509491 43.594742 38.576263
66.011169 43.594742 37.993408
65.011169 40.594742 39.366638
64.814545 40.594742 39.576263
64.753845 41.594742 39.576263
65.011169 41.594742 39.299316
64.011169 40.594742 40.422150
63.867767 40.594742 40.576263
64.011169 41.594742 40.360199
63.809082 41.594742 40.576263
64.694183 42.594742 39.576263
65.011169 42.594742 39.228333
64.628387 43.594742 39.576263
65.011169 43.594742 39.148499
63.760681 42.594742 40.576263
64.011169 42.594742 40.306335
63.712585 43.594742 40.576263
64.011169 43.594742 40.247253
58.792877 28.594742 44.576263
59.011169 28.594742 44.412445
58.952362 29.594742 44.576263
62.582153 28.594742 41.576263
63.011169 28.594742 41.232727
62.687317 29.594742 41.576263
63.011169 29.594742 41.309814
61.330048 28.594742 42.576263
62.011169 28.594742 42.041107
61.458160 29.594742 42.576263
62.011169 29.594742 42.135925
62.742523 30.594742 41.576263
63.011169 30.594742 41.350067
62.785645 31.594742 41.576263
63.011169 31.594742 41.381226
61.553101 30.594742 42.576263
62.011169 30.594742 42.199799
61.639862 31.594742 42.576263
62.011169 31.594742 42.258911
60.011169 28.349747 43.576263
60.011169 28.594742 43.610809
61.011169 28.594742 42.818542
60.191010 29.594742 43.576263
61.011169 29.594742 42.922729
60.011169 29.594742 43.723389
60.307373 30.594742 43.576263
61.011169 30.594742 43.010162
60.427765 31.594742 43.576263
61.011169 31.594742 43.099487
59.011169 30.079102 44.576263
60.011169 30.594742 43.819366
59.011169 30.594742 44.626495
59.218323 31.594742 44.576263
60.011169 31.594742 43.922974
62.845917 32.594742 41.576263
63.011169 32.594742 41.429474
62.927643 33.594742 41.576263
61.726135 32.594742 42.576263
62.011169 32.594742 42.326324
61.810394 33.594742 42.576263
62.011169 33.594742 42.400574
61.880066 34.594742 42.576263
62.991791 34.594742 41.576263
63.011169 35.130630 41.576263
63.011169 35.594742 41.586426
61.929810 35.594742 42.576263
60.544037 32.594742 43.576263
61.011169 32.594742 43.186768
60.649506 33.594742 43.576263
61.011169 33.594742 43.268311
59.356415 32.594742 44.576263
60.011169 32.594742 44.026215
59.481781 33.594742 44.576263
60.011169 33.594742 44.124634
60.734741 34.594742 43.576263
61.011169 34.594742 43.337433
60.795044 35.594742 43.576263
61.011169 35.594742 43.388367
59.585449 34.594742 44.576263
60.011169 34.594742 44.206635
59.659515 35.594742 44.576263
60.011169 35.594742 44.264221
56.011169 27.857056 46.576263
57.011169 28.594742 45.951935
56.011169 28.594742 46.689240
56.359253 29.594742 46.576263
57.011169 29.594742 46.092926
57.516174 28.594742 45.576263
58.011169 28.594742 45.190277
57.690125 29.594742 45.576263
58.011169 29.594742 45.322662
56.559296 30.594742 46.576263
57.011169 30.594742 46.232391
56.730438 31.594742 46.576263
57.011169 31.594742 46.365051
57.836761 30.594742 45.576263
58.011169 30.594742 45.434052
57.996826 31.594742 45.576263
59.011169 31.594742 44.738342
56.011169 29.594742 46.830475
56.011169 30.594742 46.981903
55.181274 30.594742 47.576263
55.353790 31.594742 47.576263
56.011169 31.594742 47.105408
56.882813 32.594742 46.576263
59.011169 32.594742 44.852875
58.011169 32.594742 45.689240
58.258057 33.594742 45.576263
59.011169 33.594742 44.956207
57.011169 33.574921 46.576263
58.011169 33.594742 45.783905
57.013428 33.594742 46.576263
58.374542 34.594742 45.576263
59.011169 34.594742 45.052338
58.482544 35.594742 45.576263
59.011169 35.594742 45.132111
57.011169 34.594742 46.662659
58.011169 34.594742 45.880402
57.249481 35.594742 46.576263
58.011169 35.594742 45.973389
55.509521 32.594742 47.576263
56.011169 32.594742 47.212799
55.668182 33.594742 47.576263
56.011169 33.594742 47.321564
55.788055 34.594742 47.576263
56.011169 34.594742 47.406525
55.913849 35.594742 47.576263
57.011169 35.594742 46.751953
63.011169 36.594742 41.599792
61.981018 36.594742 42.576263
63.011169 37.594742 41.592133
62.006012 37.594742 42.576263
63.011169 38.271698 41.576263
62.999634 38.594742 41.576263
61.990540 38.594742 42.576263
62.966492 39.594742 41.576263
61.974823 39.594742 42.576263
60.866364 36.594742 43.576263
59.723511 36.594742 44.576263
60.011169 36.594742 44.322723
59.775696 37.594742 44.576263
60.011169 37.594742 44.370850
60.917908 37.594742 43.576263
59.813477 38.594742 44.576263
60.011169 38.594742 44.398804
60.923798 38.594742 43.576263
60.011169 39.594742 44.393341
59.810089 39.594742 44.576263
60.913269 39.594742 43.576263
62.920654 40.594742 41.576263
63.011169 41.594742 41.420502
62.859955 41.594742 41.576263
61.935822 40.594742 42.576263
61.872040 41.594742 42.576263
63.011169 42.594742 41.372040
62.813141 42.594742 41.576263
62.777252 43.594742 41.576263
63.011169 43.594742 41.332581
62.011169 42.594742 42.395599
61.828430 42.594742 42.576263
61.802124 43.594742 42.576263
62.011169 43.594742 42.366699
61.011169 40.594742 43.442627
60.862335 40.594742 43.576263
60.792999 41.594742 43.576263
61.011169 41.594742 43.381714
60.011169 40.594742 44.336517
59.745697 40.594742 44.576263
60.011169 41.594742 44.270050
59.670654 41.594742 44.576263
61.011169 42.594742 43.342529
60.749451 42.594742 43.576263
60.758148 43.594742 43.576263
61.011169 43.594742 43.340271
59.640747 42.594742 44.576263
60.011169 42.594742 44.236725
59.707397 43.594742 44.576263
60.011169 43.594742 44.281219
58.551941 36.594742 45.576263
59.011169 36.594742 45.188354
58.613190 37.594742 45.576263
59.011169 37.594742 45.236725
57.342560 36.594742 46.576263
58.011169 36.594742 46.034363
57.429108 37.594742 46.576263
58.011169 37.594742 46.094788
58.678528 38.594742 45.576263
59.011169 38.594742 45.286621
58.691742 39.594742 45.576263
59.011169 39.594742 45.291138
57.520355 38.594742 46.576263
58.011169 38.594742 46.161621
57.583313 39.594742 46.576263
58.011169 39.594742 46.195190
56.011169 36.373566 47.576263
57.011169 36.594742 46.830261
56.011169 36.594742 47.599884
56.011169 37.594742 47.685730
57.011169 37.594742 46.905701
56.275970 38.594742 47.576263
57.011169 38.594742 46.990387
56.399384 39.594742 47.576263
57.011169 39.594742 47.069611
56.011169 38.594742 47.786285
56.011169 39.594742 47.889343
58.655121 40.594742 45.576263
59.011169 40.594742 45.243469
58.619598 41.594742 45.576263
59.011169 41.594742 45.191132
57.617462 40.594742 46.576263
58.011169 40.594742 46.199493
57.644043 41.594742 46.576263
58.011169 41.594742 46.200531
58.637482 42.594742 45.576263
59.011169 42.594742 45.189545
58.745392 43.594742 45.576263
59.011169 43.594742 45.291748
57.702118 42.594742 46.576263
58.011169 42.594742 46.246368
57.812531 43.594742 46.576263
58.011169 43.594742 46.365387
56.498993 40.594742 47.576263
57.011169 40.594742 47.133911
56.588196 41.594742 47.576263
57.011169 41.594742 47.192413
55.236084 40.594742 48.576263
56.011169 40.594742 47.980469
55.394012 41.594742 48.576263
56.011169 41.594742 48.078064
56.678680 42.594742 47.576263
57.011169 42.594742 47.266907
56.790131 43.594742 47.576263
57.011169 43.594742 47.371185
55.533600 42.594742 48.576263
56.011169 42.594742 48.172821
55.650513 43.594742 48.576263
56.011169 43.594742 48.268555
66.958038 46.594742 36.576263
67.011169 47.594742 36.382416
66.876740 47.594742 36.576263
68.679535 44.594742 34.576263
69.011169 44.594742 34.120880
68.543152 45.594742 34.576263
69.011169 45.594742 33.910187
69.408112 44.594742 33.576263
70.011169 44.594742 32.744385
69.240540 45.594742 33.576263
68.413483 46.594742 34.576263
69.011169 46.594742 33.688019
69.011169 47.060104 33.576263
68.284943 47.594742 34.576263
68.935516 47.594742 33.576263
68.011169 43.799225 35.576263
67.915710 44.594742 35.576263
68.011169 45.594742 35.306763
67.806030 45.594742 35.576263
67.011169 44.594742 36.713562
67.011169 45.594742 36.610107
67.699432 46.594742 35.576263
68.011169 46.594742 35.154236
67.591583 47.594742 35.576263
68.011169 47.594742 34.989166
67.011169 45.934586 36.576263
66.783173 48.594742 36.576263
67.011169 48.594742 36.241089
66.658142 49.594742 36.576263
67.011169 49.594742 36.047241
66.501587 50.594742 36.576263
67.011169 50.594742 35.794769
67.011169 51.302872 35.576263
66.312500 51.594742 36.576263
66.952148 51.594742 35.576263
69.011169 48.594742 33.214203
68.791412 48.594742 33.576263
68.619934 49.594742 33.576263
69.011169 49.594742 32.911133
68.152466 48.594742 34.576263
68.011169 49.483475 34.576263
68.412506 50.594742 33.576263
68.158081 51.594742 33.576263
68.011169 50.594742 34.222961
67.795776 50.594742 34.576263
67.555908 51.594742 34.576263
68.011169 51.594742 33.816040
67.476196 48.594742 35.576263
68.011169 48.594742 34.797852
67.330811 49.594742 35.576263
67.154907 50.594742 35.576263
66.288025 44.594742 37.576263
66.222046 45.594742 37.576263
65.439026 44.594742 38.576263
66.011169 44.594742 37.900421
65.384369 45.594742 38.576263
66.011169 45.594742 37.826141
66.168213 46.594742 37.576263
66.011169 47.594742 37.699280
65.341095 46.594742 38.576263
66.011169 46.594742 37.765350
65.299591 47.594742 38.576263
64.580139 44.594742 39.576263
65.011169 44.594742 39.081787
64.543854 45.594742 39.576263
65.011169 45.594742 39.027588
63.682190 44.594742 40.576263
64.011169 44.594742 40.207336
