66.067749 -32.791931 -15.348755
66.067749 -33.094757 -15.063293
66.368225 -31.791931 -16.063293
66.454956 -32.791931 -15.063293
67.067749 -31.791931 -15.517456
67.067749 -32.294922 -15.063293
67.648193 -31.791931 -15.063293
65.067749 -34.901001 -14.063293
66.067749 -33.791931 -14.398010
66.067749 -34.152618 -14.063293
66.067749 -35.198883 -13.063293
66.067749 -34.791931 -13.458679
66.543640 -33.791931 -14.063293
66.671570 -34.791931 -13.063293
67.067749 -33.791931 -13.686890
67.067749 -34.499695 -13.063293
68.015503 -33.791931 -13.063293
67.067749 -32.791931 -14.602905
67.067749 -33.375031 -14.063293
67.795715 -32.791931 -14.063293
68.067749 -31.791931 -14.756470
68.067749 -32.590485 -14.063293
68.067749 -32.791931 -13.881042
68.067749 -33.754364 -13.063293
67.067749 -30.791931 -16.419434
67.067749 -31.176392 -16.063293
67.501160 -30.791931 -16.063293
68.067749 -29.791931 -16.512756
68.067749 -30.301605 -16.063293
68.067749 -30.791931 -15.629578
68.067749 -31.432312 -15.063293
66.067749 -26.791931 -20.857910
66.995911 -26.791931 -20.063293
67.067749 -25.791931 -20.839539
67.067749 -26.720612 -20.063293
67.998291 -25.791931 -20.063293
68.067749 -26.913544 -19.063293
68.067749 -24.791931 -20.841919
63.605713 -37.791931 -12.063293
63.598511 -38.791931 -11.063293
64.067749 -37.791931 -11.781799
64.067749 -38.533142 -11.063293
64.067749 -37.507263 -12.063293
64.067749 -36.791931 -12.813477
64.067749 -39.515808 -10.063293
64.067749 -38.791931 -10.811646
64.067749 -39.791931 -9.765686
65.067749 -37.937134 -11.063293
65.067749 -36.878143 -12.063293
66.067749 -35.791931 -12.518738
66.067749 -36.296387 -12.063293
65.314758 -37.791931 -11.063293
66.067749 -36.791931 -11.597046
66.067749 -37.367218 -11.063293
66.887268 -35.791931 -12.063293
67.067749 -36.843475 -11.063293
67.067749 -35.791931 -11.960510
68.067749 -36.283966 -11.063293
68.067749 -35.791931 -11.439697
65.067749 -38.791931 -10.265015
65.067749 -38.996948 -10.063293
65.459595 -38.791931 -10.063293
66.067749 -37.791931 -10.683777
66.067749 -38.481995 -10.063293
65.482910 -39.791931 -9.063293
66.067749 -38.791931 -9.782593
66.067749 -39.539429 -9.063293
67.067749 -37.991333 -10.063293
67.067749 -37.791931 -10.238770
67.479980 -37.791931 -10.063293
67.067749 -39.110809 -9.063293
67.067749 -38.791931 -9.352783
67.868713 -38.791931 -9.063293
68.067749 -37.791931 -9.837708
68.067749 -38.791931 -9.001282
68.067749 -36.791931 -10.651855
68.067749 -37.510284 -10.063293
68.067749 -39.819336 -8.063293
67.067749 -40.157288 -8.063293
67.067749 -39.791931 -8.415039
68.067749 -40.801300 -7.063293
66.067749 -39.791931 -8.806030
67.067749 -34.791931 -12.814697
68.067749 -34.991455 -12.063293
68.067749 -34.791931 -12.226990
68.320190 -19.791931 -25.063293
68.812683 -23.791931 -21.063293
68.521790 -21.791931 -23.063293
68.415344 -20.791931 -24.063293
69.067749 -19.791931 -24.395813
69.067749 -20.162323 -24.063293
69.440308 -19.791931 -24.063293
69.067749 -20.791931 -23.480408
69.067749 -21.246338 -23.063293
69.534973 -20.791931 -23.063293
70.067749 -19.791931 -23.512329
70.067749 -20.281769 -23.063293
70.568298 -19.791931 -23.063293
68.648499 -22.791931 -22.063293
69.067749 -22.382385 -22.063293
69.067749 -21.791931 -22.583130
69.660034 -21.791931 -22.063293
69.067749 -23.515320 -21.063293
69.067749 -22.791931 -21.696289
69.790588 -22.791931 -21.063293
70.067749 -21.791931 -21.711487
70.067749 -22.530884 -21.063293
70.812317 -21.791931 -21.063293
70.067749 -20.791931 -22.597900
70.067749 -21.387115 -22.063293
70.677002 -20.791931 -22.063293
71.067749 -19.791931 -22.601685
71.067749 -20.400787 -22.063293
71.640503 -19.791931 -22.063293
71.067749 -21.521484 -21.063293
71.067749 -20.791931 -21.713440
71.764709 -20.791931 -21.063293
72.067749 -19.791931 -21.670471
72.067749 -20.480743 -21.063293
72.690308 -19.791931 -21.063293
68.377747 -27.791931 -18.063293
68.513062 -28.791931 -17.063293
69.067749 -28.252075 -17.063293
69.067749 -27.791931 -17.457764
69.504639 -27.791931 -17.063293
69.023560 -31.791931 -14.063293
69.067749 -32.977356 -13.063293
69.067749 -32.791931 -13.209778
69.298401 -32.791931 -13.063293
70.067749 -31.791931 -13.336121
70.067749 -32.177277 -13.063293
70.487793 -31.791931 -13.063293
68.633423 -29.791931 -16.063293
68.807983 -30.791931 -15.063293
69.067749 -29.791931 -15.706116
69.067749 -30.550354 -15.063293
69.864746 -29.791931 -15.063293
69.067749 -28.791931 -16.581421
69.067749 -29.378754 -16.063293
69.664124 -28.791931 -16.063293
70.067749 -28.387512 -16.063293
70.067749 -27.791931 -16.559143
70.067749 -29.593292 -15.063293
70.067749 -28.791931 -15.721497
70.620361 -27.791931 -16.063293
70.832520 -28.791931 -15.063293
71.067749 -28.533966 -15.063293
71.067749 -27.791931 -15.657532
71.692505 -27.791931 -15.063293
69.067749 -30.791931 -14.865540
70.067749 -30.849762 -14.063293
70.067749 -29.791931 -14.903137
71.067749 -29.837708 -14.063293
71.067749 -30.791931 -13.353943
71.067749 -31.182983 -13.063293
71.437927 -30.791931 -13.063293
72.067749 -30.069427 -13.063293
72.067749 -29.791931 -13.239319
71.067749 -28.791931 -14.860107
71.933777 -28.791931 -14.063293
72.067749 -27.791931 -14.691101
72.067749 -28.627777 -14.063293
72.274475 -29.791931 -13.063293
72.691528 -27.791931 -14.063293
73.067749 -28.791931 -12.971130
73.067749 -27.791931 -13.667114
73.637451 -27.791931 -13.063293
69.067749 -25.928314 -19.063293
69.067749 -24.791931 -20.003418
69.067749 -23.791931 -20.835327
70.067749 -23.791931 -19.957947
70.067749 -24.875641 -19.063293
71.067749 -23.791931 -19.060486
69.067749 -26.791931 -18.322937
69.067749 -27.083557 -18.063293
69.363586 -26.791931 -18.063293
70.067749 -25.791931 -18.298218
70.067749 -26.075867 -18.063293
70.067749 -27.191132 -17.063293
70.067749 -26.791931 -17.425964
70.325012 -25.791931 -18.063293
70.461426 -26.791931 -17.063293
71.067749 -26.136688 -17.063293
71.067749 -25.791931 -17.351685
71.351990 -25.791931 -17.063293
71.067749 -24.963776 -18.063293
71.067749 -24.791931 -18.210205
71.217529 -24.791931 -18.063293
72.067749 -23.831024 -18.063293
72.067749 -24.791931 -17.207825
72.203674 -24.791931 -17.063293
73.067749 -23.791931 -17.032776
70.067749 -22.791931 -20.825562
71.067749 -22.791931 -19.930847
71.067749 -21.791931 -20.830322
71.879028 -21.791931 -20.063293
71.985779 -22.791931 -19.063293
72.067749 -21.791931 -19.881104
72.067749 -22.704407 -19.063293
72.067749 -21.582458 -20.063293
72.067749 -20.791931 -20.774780
72.876526 -21.791931 -19.063293
72.787415 -20.791931 -20.063293
73.067749 -20.476044 -20.063293
73.067749 -19.791931 -20.666687
73.645935 -19.791931 -20.063293
73.067749 -21.565704 -19.063293
73.067749 -20.791931 -19.772644
73.726929 -20.791931 -19.063293
74.067749 -20.387787 -19.063293
74.067749 -19.791931 -19.616150
74.558838 -19.791931 -19.063293
73.067749 -22.791931 -17.959412
73.067749 -21.791931 -18.862732
73.794800 -21.791931 -18.063293
73.853271 -22.791931 -17.063293
74.067749 -22.531158 -17.063293
74.067749 -21.791931 -17.748535
74.626709 -21.791931 -17.063293
74.067749 -21.442352 -18.063293
74.067749 -20.791931 -18.677307
74.583923 -20.791931 -18.063293
75.067749 -20.183014 -18.063293
75.067749 -19.791931 -18.438293
75.366150 -19.791931 -18.063293
75.067749 -20.791931 -17.457581
75.067749 -21.180542 -17.063293
75.364685 -20.791931 -17.063293
76.067749 -19.791931 -17.129883
76.067749 -19.856781 -17.063293
71.067749 -27.275299 -16.063293
71.067749 -26.791931 -16.481873
71.492798 -26.791931 -16.063293
72.067749 -26.112274 -16.063293
72.067749 -25.791931 -16.320679
72.067749 -27.309204 -15.063293
72.067749 -26.791931 -15.493408
72.311890 -25.791931 -16.063293
72.476868 -26.791931 -15.063293
73.067749 -26.009583 -15.063293
73.067749 -25.791931 -15.240234
73.221985 -25.791931 -15.063293
73.067749 -24.841553 -16.063293
73.900818 -23.791931 -16.063293
74.067749 -24.791931 -14.937134
74.067749 -23.791931 -15.867004
74.716248 -23.791931 -15.063293
73.067749 -27.247955 -14.063293
73.067749 -26.791931 -14.427429
73.395203 -26.791931 -14.063293
74.079285 -25.791931 -14.063293
74.067749 -27.124695 -13.063293
74.067749 -26.791931 -13.314087
74.294678 -26.791931 -13.063293
75.067749 -25.791931 -12.922913
74.789917 -24.791931 -14.063293
75.067749 -24.418396 -14.063293
75.067749 -23.791931 -14.616333
75.515869 -23.791931 -14.063293
75.067749 -25.595428 -13.063293
75.067749 -24.791931 -13.734863
75.632874 -24.791931 -13.063293
76.067749 -24.198303 -13.063293
76.067749 -23.791931 -13.400818
74.067749 -23.575500 -16.063293
74.067749 -22.791931 -16.806763
74.663208 -22.791931 -16.063293
75.067749 -22.257019 -16.063293
75.067749 -21.791931 -16.490967
75.403076 -21.791931 -16.063293
75.067749 -23.308838 -15.063293
75.067749 -22.791931 -15.557251
75.450378 -22.791931 -15.063293
76.067749 -21.927032 -15.063293
76.067749 -20.851440 -16.063293
76.067749 -23.015350 -14.063293
76.067749 -22.791931 -14.264587
76.340210 -23.791931 -13.063293
76.845032 -19.791931 -16.063293
76.856812 -20.791931 -15.063293
77.067749 -19.791931 -15.760132
77.067749 -20.503998 -15.063293
77.552673 -19.791931 -15.063293
76.227356 -22.791931 -14.063293
76.929871 -21.791931 -14.063293
77.067749 -22.791931 -13.007324
77.067749 -21.791931 -13.887085
77.693604 -21.791931 -13.063293
77.067749 -21.578918 -14.063293
77.067749 -20.791931 -14.777344
77.599060 -20.791931 -14.063293
78.067749 -20.076508 -14.063293
78.067749 -19.791931 -14.313782
78.067749 -21.200470 -13.063293
78.067749 -20.791931 -13.422546
78.234192 -19.791931 -14.063293
78.320496 -20.791931 -13.063293
78.907410 -19.791931 -13.063293
68.851501 -35.791931 -11.063293
69.067749 -38.306915 -9.063293
69.067749 -37.791931 -9.451660
70.067749 -37.827820 -9.063293
69.067749 -36.977997 -10.063293
69.067749 -36.791931 -10.206116
69.390686 -36.791931 -10.063293
69.067749 -35.791931 -10.953796
70.067749 -35.791931 -10.489197
70.067749 -36.413910 -10.063293
70.067749 -36.791931 -9.780640
70.996155 -35.791931 -10.063293
71.067749 -37.207031 -9.063293
71.067749 -36.791931 -9.340942
71.682678 -36.791931 -9.063293
72.067749 -35.791931 -9.520569
72.067749 -36.542908 -9.063293
73.067749 -35.791931 -9.001526
69.067749 -40.501526 -7.063293
69.067749 -39.791931 -7.760742
70.067749 -39.791931 -7.436951
70.067749 -40.200378 -7.063293
71.067749 -39.857635 -7.063293
70.067749 -41.791931 -5.635437
71.067749 -41.791931 -5.377930
71.067749 -42.132202 -5.063293
72.045288 -41.791931 -5.063293
68.067749 -41.827423 -6.063293
69.067749 -40.791931 -6.785217
69.067749 -41.563354 -6.063293
70.067749 -41.294220 -6.063293
70.067749 -40.791931 -6.514709
69.067749 -41.791931 -5.862854
71.067749 -40.990570 -6.063293
71.067749 -40.791931 -6.238770
71.596680 -40.791931 -6.063293
72.067749 -39.791931 -6.737671
72.067749 -40.609131 -6.063293
72.067749 -40.791931 -5.901245
72.067749 -41.791931 -5.055481
73.067749 -40.106506 -6.063293
73.067749 -39.791931 -6.306091
73.563416 -39.791931 -6.063293
73.067749 -41.262848 -5.063293
73.067749 -40.791931 -5.465759
73.888184 -40.791931 -5.063293
74.067749 -39.791931 -5.801758
74.067749 -40.690277 -5.063293
75.067749 -40.049164 -5.063293
75.067749 -39.791931 -5.251282
75.384399 -39.791931 -5.063293
69.067749 -38.791931 -8.672791
69.067749 -39.484314 -8.063293
70.067749 -39.112030 -8.063293
70.067749 -38.791931 -8.330994
70.809204 -38.791931 -8.063293
71.067749 -37.791931 -8.690063
71.067749 -38.791931 -7.956177
72.067749 -38.045654 -8.063293
72.067749 -37.791931 -8.239685
72.067749 -38.791931 -7.529175
72.067749 -39.408142 -7.063293
72.067749 -36.791931 -8.894592
72.467468 -37.791931 -8.063293
73.067749 -38.816864 -7.063293
73.067749 -37.791931 -7.753906
74.067749 -38.051086 -7.063293
74.067749 -37.791931 -7.227661
74.378418 -37.791931 -7.063293
73.067749 -36.791931 -8.390869
73.067749 -37.296539 -8.063293
73.671204 -36.791931 -8.063293
74.067749 -35.791931 -8.432861
74.067749 -36.461487 -8.063293
74.067749 -36.791931 -7.851257
74.680725 -35.791931 -8.063293
75.067749 -37.126648 -7.063293
75.067749 -36.791931 -7.256897
75.367737 -36.791931 -7.063293
75.067749 -35.791931 -7.808289
76.067749 -35.911316 -7.063293
74.067749 -38.791931 -6.567078
74.067749 -39.466339 -6.063293
74.982483 -38.791931 -6.063293
75.067749 -37.791931 -6.658936
75.067749 -38.716675 -6.063293
76.067749 -37.791931 -6.022583
76.067749 -38.791931 -5.384033
76.067749 -39.249268 -5.063293
76.067749 -36.791931 -6.589661
76.593750 -38.791931 -5.063293
77.067749 -38.247681 -5.063293
77.067749 -37.791931 -5.308105
77.392456 -37.791931 -5.063293
76.803711 -36.791931 -6.063293
77.067749 -36.420441 -6.063293
77.067749 -35.791931 -6.369263
77.451660 -35.791931 -6.063293
77.067749 -36.791931 -5.853149
78.067749 -36.797424 -5.063293
78.067749 -35.791931 -5.565979
78.687256 -35.791931 -5.063293
70.067749 -44.116425 -3.063293
70.067749 -43.791931 -3.450012
71.067749 -43.791931 -3.237915
71.067749 -43.941986 -3.063293
71.748352 -43.791931 -3.063293
71.067749 -44.813538 -2.063293
72.067749 -44.619446 -2.063293
72.067749 -43.791931 -2.966736
72.067749 -45.791931 -0.932617
71.067749 -45.791931 -1.047607
72.067749 -44.791931 -1.893311
73.067749 -43.791931 -2.616455
73.067749 -44.334045 -2.063293
74.067749 -43.899811 -2.063293
73.067749 -44.791931 -1.627808
71.067749 -43.102081 -4.063293
71.067749 -42.791931 -4.399292
72.067749 -42.829895 -4.063293
73.067749 -41.791931 -4.631897
73.067749 -42.411041 -4.063293
74.067749 -41.863983 -4.063293
73.067749 -43.401825 -3.063293
73.067749 -42.791931 -3.692566
74.067749 -42.922821 -3.063293
75.067749 -42.338745 -3.063293
75.067749 -41.791931 -3.584961
75.978699 -41.791931 -3.063293
75.067749 -41.234528 -4.063293
75.067749 -40.791931 -4.440063
75.738342 -40.791931 -4.063293
76.067749 -39.791931 -4.664124
76.067749 -40.577026 -4.063293
76.067749 -40.791931 -3.879028
76.067749 -41.733643 -3.063293
74.264526 -43.791931 -2.063293
77.067749 -39.791931 -4.025696
77.067749 -41.019501 -3.063293
77.067749 -40.791931 -3.250244
77.351318 -40.791931 -3.063293
78.067749 -39.791931 -3.304443
78.067749 -40.148071 -3.063293
78.399780 -39.791931 -3.063293
77.067749 -41.791931 -2.387268
78.067749 -40.791931 -2.567444
79.067749 -39.791931 -2.536987
79.067749 -40.491455 -2.063293
79.641785 -39.791931 -2.063293
80.067749 -39.791931 -1.705627
79.983582 -40.791931 -1.063293
80.067749 -40.702271 -1.063293
80.765503 -39.791931 -1.063293
77.067749 -38.791931 -4.721436
78.067749 -38.791931 -3.968689
78.067749 -37.791931 -4.539978
78.654297 -37.791931 -4.063293
79.067749 -38.962311 -3.063293
79.067749 -37.791931 -3.711731
79.186462 -38.791931 -3.063293
79.804932 -37.791931 -3.063293
79.067749 -37.096527 -4.063293
79.067749 -36.791931 -4.224304
79.251038 -36.791931 -4.063293
79.067749 -35.791931 -4.731567
79.801819 -35.791931 -4.063293
80.067749 -37.311066 -3.063293
80.067749 -36.791931 -3.328430
80.067749 -35.791931 -3.813782
80.067749 -39.202240 -2.063293
80.067749 -38.791931 -2.296387
80.067749 -37.791931 -2.824036
80.346741 -36.791931 -3.063293
80.820007 -35.791931 -3.063293
80.328674 -38.791931 -2.063293
80.885620 -37.791931 -2.063293
81.067749 -39.312500 -1.063293
81.067749 -38.791931 -1.363525
81.365051 -38.791931 -1.063293
81.067749 -37.791931 -1.885437
81.866028 -37.791931 -1.063293
81.067749 -37.412323 -2.063293
81.067749 -36.791931 -2.362122
81.362183 -36.791931 -2.063293
81.067749 -35.791931 -2.809326
81.761414 -35.791931 -2.063293
82.067749 -37.337952 -1.063293
82.067749 -36.791931 -1.314697
82.067749 -35.791931 -1.721985
82.287964 -36.791931 -1.063293
82.632507 -35.791931 -1.063293
81.067749 -40.791931 0.036804
81.067749 -39.791931 -0.748779
81.698914 -39.791931 -0.063293
81.067749 -41.791931 0.968994
81.787292 -40.791931 0.936707
82.067749 -40.412811 0.936707
82.067749 -39.791931 0.372070
82.489014 -39.791931 0.936707
81.803467 -41.791931 1.936707
82.067749 -41.419739 1.936707
82.067749 -40.791931 1.315247
82.510803 -40.791931 1.936707
83.067749 -39.983765 1.936707
83.181274 -39.791931 1.936707
83.067749 -40.978577 2.936707
83.067749 -40.791931 2.734314
83.197632 -40.791931 2.936707
83.823975 -39.791931 2.936707
82.067749 -39.202240 -0.063293
82.067749 -38.791931 -0.316162
82.067749 -37.791931 -0.844604
82.284424 -38.791931 -0.063293
82.740112 -37.791931 -0.063293
83.067749 -38.791931 0.937683
83.067749 -37.791931 0.346802
83.504028 -37.791931 0.936707
83.067749 -36.933105 -0.063293
83.067749 -35.791931 -0.529175
83.441528 -35.791931 -0.063293
83.866211 -36.791931 0.936707
84.067749 -36.148773 0.936707
84.157166 -35.791931 0.936707
83.744141 -38.791931 1.936707
84.067749 -38.075409 1.936707
84.174011 -37.791931 1.936707
84.067749 -39.342438 2.936707
84.067749 -38.791931 2.439148
84.067749 -36.791931 1.242737
84.354431 -38.791931 2.936707
84.808655 -37.791931 2.936707
84.530762 -36.791931 1.936707
84.837158 -35.791931 1.936707
85.067749 -37.115692 2.936707
85.067749 -36.791931 2.739014
85.187195 -36.791931 2.936707
85.067749 -35.791931 2.264893
85.499878 -35.791931 2.936707
68.377502 -34.791931 -12.063293
69.067749 -33.791931 -12.434509
69.067749 -34.276917 -12.063293
69.701782 -33.791931 -12.063293
69.067749 -34.791931 -11.682617
70.067749 -34.949890 -11.063293
70.067749 -33.791931 -11.861816
70.291992 -34.791931 -11.063293
71.067749 -34.162445 -11.063293
71.067749 -33.791931 -11.295898
71.474548 -33.791931 -11.063293
70.067749 -32.791931 -12.596130
70.067749 -33.502350 -12.063293
70.913879 -32.791931 -12.063293
71.067749 -31.791931 -12.658997
71.067749 -32.656952 -12.063293
71.888000 -31.791931 -12.063293
72.067749 -33.218292 -11.063293
72.067749 -32.791931 -11.317810
72.067749 -31.791931 -11.939270
71.067749 -34.791931 -10.678223
72.067749 -34.920380 -10.063293
72.067749 -33.791931 -10.727783
72.470642 -32.791931 -11.063293
73.067749 -32.053070 -11.063293
73.067749 -31.791931 -11.197144
73.246521 -31.791931 -11.063293
73.067749 -33.910767 -10.063293
73.067749 -34.791931 -9.572449
74.067749 -34.791931 -8.987305
74.067749 -33.791931 -9.477356
74.710083 -33.791931 -9.063293
73.067749 -32.791931 -10.665771
74.067749 -32.791931 -9.973877
74.067749 -31.791931 -10.446777
74.580139 -31.791931 -10.063293
75.067749 -33.215790 -9.063293
75.067749 -32.791931 -9.249695
75.321289 -32.791931 -9.063293
75.067749 -31.791931 -9.679321
75.855774 -31.791931 -9.063293
72.067749 -31.577087 -12.063293
72.067749 -30.791931 -12.576721
72.701721 -30.791931 -12.063293
73.067749 -30.275574 -12.063293
73.067749 -29.791931 -12.343018
73.371399 -29.791931 -12.063293
73.067749 -30.791931 -11.753113
73.890503 -30.791931 -11.063293
74.067749 -29.791931 -11.431519
74.067749 -30.504364 -11.063293
74.474304 -29.791931 -11.063293
74.067749 -28.791931 -11.987366
74.067749 -27.791931 -12.612976
74.597717 -27.791931 -12.063293
75.067749 -28.791931 -11.018799
75.067749 -27.791931 -11.582458
75.579407 -27.791931 -11.063293
74.067749 -30.791931 -10.919983
75.067749 -30.847870 -10.063293
75.067749 -29.791931 -10.528564
75.586365 -29.791931 -10.063293
76.067749 -31.326569 -9.063293
76.067749 -30.791931 -9.263123
76.067749 -29.791931 -9.646912
76.067749 -28.818420 -10.063293
76.067749 -27.791931 -10.576294
75.067749 -35.288971 -8.063293
75.067749 -34.791931 -8.331848
75.445190 -34.791931 -8.063293
75.067749 -33.791931 -8.813354
76.067749 -33.856964 -8.063293
76.067749 -34.791931 -7.617676
76.067749 -32.791931 -8.509888
76.067749 -31.791931 -8.903259
76.319702 -30.791931 -9.063293
76.744873 -29.791931 -9.063293
76.597351 -27.791931 -10.063293
77.067749 -29.013123 -9.063293
77.169739 -28.791931 -9.063293
77.067749 -27.791931 -9.609619
77.642151 -27.791931 -9.063293
76.813171 -34.791931 -7.063293
77.067749 -34.370117 -7.063293
77.067749 -33.791931 -7.314209
77.381042 -33.791931 -7.063293
76.655640 -32.791931 -8.063293
77.067749 -31.894714 -8.063293
77.067749 -32.791931 -7.728027
77.863525 -32.791931 -7.063293
78.067749 -32.319458 -7.063293
78.067749 -31.791931 -7.233643
78.262390 -31.791931 -7.063293
77.067749 -34.791931 -6.863525
78.067749 -34.791931 -6.051636
78.067749 -33.791931 -6.485901
78.549011 -33.791931 -6.063293
79.067749 -35.045502 -5.063293
79.192261 -34.791931 -5.063293
79.067749 -33.791931 -5.586365
79.614990 -33.791931 -5.063293
78.067749 -32.791931 -6.887878
79.067749 -32.791931 -5.981567
79.067749 -32.577972 -6.063293
79.067749 -31.791931 -6.320435
79.338928 -31.791931 -6.063293
80.067749 -32.791931 -5.017090
80.067749 -31.791931 -5.373169
80.385010 -31.791931 -5.063293
77.067749 -30.791931 -8.431519
77.489136 -30.791931 -8.063293
77.067749 -29.791931 -8.779724
77.871582 -29.791931 -8.063293
78.067749 -30.791931 -7.556580
78.067749 -29.791931 -7.888245
78.620056 -30.791931 -7.063293
79.067749 -29.791931 -6.979736
78.067749 -29.274994 -8.063293
78.067749 -28.791931 -8.248169
78.067749 -27.791931 -8.675720
78.269348 -28.791931 -8.063293
78.733948 -27.791931 -8.063293
79.067749 -29.532990 -7.063293
79.067749 -28.791931 -7.328186
79.356812 -28.791931 -7.063293
79.067749 -27.791931 -7.754456
79.804565 -27.791931 -7.063293
79.067749 -30.791931 -6.650269
79.690857 -30.791931 -6.063293
80.067749 -29.791931 -6.037842
80.067749 -30.791931 -5.708435
80.067749 -28.791931 -6.389954
80.067749 -27.791931 -6.812317
80.726074 -30.791931 -5.063293
81.067749 -29.791931 -5.055359
80.410461 -28.791931 -6.063293
80.845947 -27.791931 -6.063293
81.067749 -28.791931 -5.418884
81.422363 -28.791931 -5.063293
81.067749 -27.791931 -5.844482
81.848877 -27.791931 -5.063293
75.067749 -27.013214 -12.063293
75.067749 -26.791931 -12.216797
75.211670 -26.791931 -12.063293
75.848450 -25.791931 -12.063293
76.067749 -26.948975 -11.063293
76.067749 -25.791931 -11.825439
76.067749 -25.431915 -12.063293
76.067749 -24.791931 -12.553101
76.775635 -25.791931 -11.063293
76.508362 -24.791931 -12.063293
77.067749 -23.979980 -12.063293
77.183594 -23.791931 -12.063293
77.067749 -25.311584 -11.063293
77.067749 -24.791931 -11.446106
77.414795 -24.791931 -11.063293
78.067749 -23.791931 -11.063171
77.067749 -26.936890 -10.063293
77.067749 -25.791931 -10.758789
77.753601 -25.791931 -10.063293
78.067749 -27.005096 -9.063293
78.198364 -26.791931 -9.063293
78.067749 -25.791931 -9.749390
78.779724 -25.791931 -9.063293
78.067749 -25.258148 -10.063293
78.067749 -24.791931 -10.367981
78.364746 -24.791931 -10.063293
79.067749 -23.791931 -9.986694
79.067749 -25.271484 -9.063293
79.067749 -24.791931 -9.355652
79.355347 -24.791931 -9.063293
80.067749 -23.791931 -8.944641
77.831299 -22.791931 -12.063293
78.067749 -22.419861 -12.063293
78.067749 -21.791931 -12.567932
78.067749 -22.791931 -11.778809
78.459167 -21.791931 -12.063293
78.681702 -22.791931 -11.063293
79.067749 -22.144897 -11.063293
79.067749 -21.791931 -11.311707
79.272644 -21.791931 -11.063293
79.067749 -20.791931 -12.044189
79.067749 -19.791931 -12.815369
79.589966 -19.791931 -12.063293
79.824036 -20.791931 -11.063293
80.067749 -20.320587 -11.063293
80.067749 -19.791931 -11.391479
79.067749 -22.791931 -10.625244
79.580994 -22.791931 -10.063293
80.067749 -21.933197 -10.063293
80.067749 -23.586945 -9.063293
80.067749 -22.791931 -9.547363
80.067749 -20.791931 -10.751404
80.303162 -19.791931 -11.063293
80.530273 -22.791931 -9.063293
81.067749 -21.811798 -9.063293
80.655334 -20.791931 -10.063293
81.067749 -19.923676 -10.063293
81.067749 -20.791931 -9.614014
81.588318 -20.791931 -9.063293
82.067749 -19.791931 -9.055969
79.067749 -27.133575 -8.063293
79.067749 -26.791931 -8.248657
79.264587 -26.791931 -8.063293
79.067749 -25.791931 -8.787598
79.824036 -25.791931 -8.063293
80.067749 -27.250671 -7.063293
80.067749 -26.791931 -7.304626
80.067749 -25.791931 -7.828979
80.067749 -25.331604 -8.063293
80.067749 -24.791931 -8.363220
80.314392 -26.791931 -7.063293
80.846497 -25.791931 -7.063293
80.377075 -24.791931 -8.063293
81.067749 -23.791931 -7.948120
81.067749 -25.372864 -7.063293
81.067749 -24.791931 -7.385193
81.392456 -24.791931 -7.063293
82.067749 -23.791931 -6.964172
81.067749 -27.297180 -6.063293
81.067749 -26.791931 -6.320007
81.324890 -26.791931 -6.063293
81.067749 -25.791931 -6.843933
81.850037 -25.791931 -6.063293
82.067749 -27.313049 -5.063293
82.067749 -26.791931 -5.326416
82.067749 -25.791931 -5.846191
82.339539 -26.791931 -5.063293
82.874756 -25.791931 -5.063293
82.067749 -25.377411 -6.063293
82.067749 -24.791931 -6.393066
82.406799 -24.791931 -6.063293
83.067749 -23.791931 -6.022705
83.067749 -25.433655 -5.063293
83.067749 -24.791931 -5.432312
83.460999 -24.791931 -5.063293
84.067749 -23.920746 -5.063293
81.067749 -23.574310 -8.063293
81.067749 -22.791931 -8.510559
81.518799 -22.791931 -8.063293
82.067749 -21.824188 -8.063293
82.067749 -22.791931 -7.531738
82.564209 -22.791931 -7.063293
83.067749 -21.952393 -7.063293
82.067749 -20.791931 -8.588440
82.621948 -20.791931 -8.063293
83.067749 -19.902222 -8.063293
83.067749 -20.791931 -7.652527
83.753784 -20.791931 -7.063293
84.067749 -20.279175 -7.063293
84.067749 -19.791931 -7.272766
83.067749 -22.791931 -6.600098
83.672729 -22.791931 -6.063293
84.067749 -22.209045 -6.063293
84.067749 -21.791931 -6.284180
84.067749 -22.791931 -5.732910
84.067749 -20.791931 -6.810547
80.067749 -35.204041 -4.063293
80.067749 -34.791931 -4.237366
80.067749 -33.791931 -4.624023
80.245483 -34.791931 -4.063293
80.632263 -33.791931 -4.063293
81.067749 -35.166595 -3.063293
81.067749 -34.791931 -3.219604
81.212952 -34.791931 -3.063293
81.067749 -33.791931 -3.610229
81.568542 -33.791931 -3.063293
81.067749 -32.791931 -4.001099
81.067749 -31.791931 -4.362488
81.352600 -31.791931 -4.063293
81.912659 -32.791931 -3.063293
82.067749 -32.343170 -3.063293
82.067749 -31.791931 -3.271179
82.242188 -31.791931 -3.063293
82.067749 -34.914459 -2.063293
82.067749 -33.791931 -2.496033
82.435547 -33.791931 -2.063293
83.067749 -34.791931 -0.924133
83.067749 -34.451385 -1.063293
83.067749 -33.791931 -1.308655
83.259705 -33.791931 -1.063293
82.067749 -32.791931 -2.880493
82.749207 -32.791931 -2.063293
83.069458 -31.791931 -2.063293
83.067749 -32.791931 -1.681458
83.548401 -32.791931 -1.063293
83.849731 -31.791931 -1.063293
81.067749 -30.791931 -4.711731
81.687805 -30.791931 -4.063293
82.067749 -29.791931 -4.017700
82.067749 -30.791931 -3.647949
82.577332 -30.791931 -3.063293
83.067749 -29.791931 -2.908630
82.067749 -28.791931 -4.409302
82.067749 -27.791931 -4.847473
82.397339 -28.791931 -4.063293
82.851257 -27.791931 -4.063293
83.067749 -29.423737 -3.063293
83.067749 -28.791931 -3.349548
83.331177 -28.791931 -3.063293
83.067749 -27.791931 -3.842468
83.815308 -27.791931 -3.063293
83.067749 -30.791931 -2.478882
83.414368 -30.791931 -2.063293
83.787292 -29.791931 -2.063293
84.067749 -31.084412 -1.063293
84.171021 -30.791931 -1.063293
84.067749 -29.791931 -1.716064
84.067749 -29.070831 -2.063293
84.196838 -28.791931 -2.063293
84.067749 -27.791931 -2.784058
83.741150 -34.791931 -0.063293
84.067749 -33.791931 0.013245
84.067749 -34.791931 0.391724
84.067749 -33.568298 -0.063293
84.067749 -32.791931 -0.348999
84.067749 -31.791931 -0.745911
83.067749 -27.332855 -4.063293
83.067749 -26.791931 -4.352661
83.364807 -26.791931 -4.063293
83.067749 -25.791931 -4.879822
84.067749 -25.791931 -3.948242
84.067749 -27.302887 -3.063293
84.067749 -26.791931 -3.374512
84.067749 -25.575317 -4.063293
84.067749 -24.791931 -4.526367
84.339722 -19.791931 -7.063293
84.343445 -21.791931 -6.063293
84.884949 -22.791931 -5.063293
85.067749 -22.544922 -5.063293
85.067749 -21.791931 -5.485962
85.624756 -21.791931 -5.063293
85.067749 -20.791931 -6.038330
85.067749 -19.791931 -6.519592
85.697510 -19.791931 -6.063293
86.067749 -21.225952 -5.063293
86.067749 -20.791931 -5.302979
86.067749 -19.791931 -5.803467
86.422852 -20.791931 -5.063293
87.067749 -19.883789 -5.063293
84.537842 -29.791931 -1.063293
84.712952 -27.791931 -2.063293
85.067749 -28.791931 -0.949646
85.067749 -27.791931 -1.652161
85.533264 -27.791931 -1.063293
84.423279 -34.791931 0.936707
84.683228 -33.791931 0.936707
84.269592 -32.791931 -0.063293
84.541382 -31.791931 -0.063293
84.935059 -32.791931 0.936707
85.067749 -32.287628 0.936707
85.067749 -31.791931 0.734619
85.188965 -31.791931 0.936707
85.067749 -34.916565 1.936707
85.067749 -33.791931 1.524902
85.344116 -33.791931 1.936707
85.765015 -34.791931 2.936707
86.067749 -33.791931 3.077332
85.067749 -32.791931 1.150696
85.569092 -32.791931 1.936707
85.797119 -31.791931 1.936707
86.067749 -33.355804 2.936707
86.067749 -32.791931 2.755310
86.067749 -31.791931 2.406555
86.168884 -32.791931 2.936707
86.349365 -31.791931 2.936707
84.858521 -30.791931 -0.063293
85.067749 -30.233002 -0.063293
85.067749 -29.791931 -0.300293
85.234009 -29.791931 -0.063293
85.067749 -30.791931 0.247742
85.487915 -30.791931 0.936707
85.865967 -29.791931 0.936707
85.706543 -28.791931 -0.063293
86.067749 -28.145538 -0.063293
86.067749 -27.791931 -0.358826
86.067749 -29.322937 0.936707
86.067749 -28.791931 0.487061
86.286865 -27.791931 -0.063293
86.345764 -28.791931 0.936707
87.067749 -27.791931 1.079285
86.067749 -30.791931 1.955872
86.067749 -29.791931 1.295837
86.418396 -29.791931 1.936707
86.575928 -30.791931 2.936707
86.912659 -29.791931 2.936707
86.923584 -28.791931 1.936707
87.067749 -28.563019 1.936707
87.635071 -27.791931 1.936707
87.067749 -29.412811 2.936707
87.067749 -28.791931 2.206116
87.437134 -28.791931 2.936707
88.067749 -27.791931 2.644226
88.067749 -27.986206 2.936707
88.230896 -27.791931 2.936707
84.371887 -26.791931 -3.063293
85.067749 -25.791931 -3.017517
84.614380 -24.791931 -4.063293
85.067749 -24.181427 -4.063293
85.067749 -23.791931 -4.293945
85.343811 -23.791931 -4.063293
85.067749 -24.791931 -3.667297
85.760864 -24.791931 -3.063293
86.067749 -24.413696 -3.063293
86.067749 -23.791931 -3.471191
86.562439 -23.791931 -3.063293
85.067749 -27.182404 -2.063293
85.067749 -26.791931 -2.337830
85.330078 -26.791931 -2.063293
86.067749 -25.791931 -2.050293
86.067749 -26.978912 -1.063293
86.067749 -26.791931 -1.231873
86.209534 -26.791931 -1.063293
87.067749 -25.791931 -1.004333
86.067749 -24.791931 -2.792542
86.877258 -24.791931 -2.063293
87.067749 -24.574890 -2.063293
87.067749 -23.791931 -2.634827
87.742737 -23.791931 -2.063293
87.067749 -24.791931 -1.884888
88.067749 -24.791931 -0.929993
88.067749 -23.791931 -1.796021
89.067749 -23.791931 -0.926392
85.067749 -22.791931 -4.914368
86.067749 -22.869965 -4.063293
86.067749 -21.791931 -4.741638
87.067749 -21.791931 -3.978027
87.067749 -23.167450 -3.063293
87.067749 -22.791931 -3.315247
87.382568 -22.791931 -3.063293
88.067749 -21.791931 -3.208130
88.067749 -22.007080 -3.063293
87.067749 -20.791931 -4.596069
87.781189 -20.791931 -4.063293
88.067749 -20.454285 -4.063293
88.067749 -19.791931 -4.389648
88.067749 -20.791931 -3.857300
88.067749 -23.423645 -2.063293
88.067749 -22.791931 -2.518921
88.262451 -21.791931 -3.063293
88.527466 -19.791931 -4.063293
89.067749 -20.885925 -3.063293
89.067749 -19.791931 -3.659851
89.880371 -19.791931 -3.063293
88.648315 -22.791931 -2.063293
89.067749 -22.331543 -2.063293
89.067749 -21.791931 -2.448364
89.570801 -21.791931 -2.063293
89.067749 -23.633118 -1.063293
89.067749 -22.791931 -1.720764
89.887634 -22.791931 -1.063293
90.067749 -21.791931 -1.689209
90.067749 -22.620331 -1.063293
90.884766 -21.791931 -1.063293
90.067749 -21.257385 -2.063293
90.067749 -20.791931 -2.368958
90.067749 -19.791931 -2.927307
90.478943 -20.791931 -2.063293
91.067749 -20.029327 -2.063293
91.223999 -19.791931 -2.063293
91.067749 -21.588989 -1.063293
91.067749 -20.791931 -1.605774
91.753662 -20.791931 -1.063293
92.067749 -20.434692 -1.063293
92.067749 -19.791931 -1.436096
87.067749 -26.791931 0.002625
87.908813 -25.791931 -0.063293
87.776367 -26.791931 0.936707
88.067749 -26.471008 0.936707
88.067749 -25.791931 0.120361
88.067749 -25.619049 -0.063293
88.067749 -26.791931 1.343506
88.067749 -27.263824 1.936707
88.725342 -25.791931 0.936707
88.938049 -24.791931 -0.063293
89.067749 -24.671936 -0.063293
90.030151 -23.791931 -0.063293
89.067749 -25.454803 0.936707
89.822449 -24.791931 0.936707
90.067749 -24.586304 0.936707
90.067749 -23.791931 -0.028809
91.011047 -23.791931 0.936707
88.480652 -26.791931 1.936707
89.067749 -25.791931 1.416748
89.067749 -26.148682 1.936707
89.419312 -25.791931 1.936707
89.067749 -26.791931 2.895569
89.067749 -26.818115 2.936707
89.976013 -25.791931 2.936707
90.067749 -25.182739 1.936707
90.067749 -24.791931 1.267944
90.553040 -24.791931 1.936707
91.067749 -24.380127 1.936707
91.067749 -23.791931 1.007935
91.833679 -23.791931 1.936707
91.161621 -24.791931 2.936707
92.067749 -24.204620 2.936707
92.067749 -23.791931 2.202759
90.067749 -22.791931 -0.924316
91.067749 -22.827423 -0.063293
91.067749 -21.791931 -0.919434
92.067749 -21.825592 -0.063293
92.141968 -22.791931 0.936707
92.067749 -20.791931 -0.825989
92.067749 -23.616516 1.936707
92.581421 -19.791931 -1.063293
92.685791 -23.791931 2.936707
93.067749 -21.929352 0.936707
93.067749 -20.791931 -0.014954
93.067749 -19.791931 -0.686768
93.895020 -19.791931 -0.063293
94.067749 -20.965393 0.936707
94.067749 -20.791931 0.797363
94.067749 -19.791931 0.062744
94.256409 -20.791931 0.936707
95.067749 -19.984467 0.936707
95.067749 -19.791931 0.800476
95.245911 -19.791931 0.936707
93.105225 -22.791931 1.936707
94.067749 -22.051636 1.936707
94.067749 -21.791931 1.678223
93.067749 -23.514160 2.936707
94.067749 -22.840057 2.936707
94.406006 -21.791931 1.936707
95.067749 -22.220795 2.936707
95.067749 -21.791931 2.464294
95.654968 -21.791931 2.936707
95.067749 -20.791931 1.542236
95.067749 -21.258606 1.936707
95.593018 -20.791931 1.936707
96.067749 -19.791931 1.547668
96.067749 -20.356628 1.936707
96.067749 -20.791931 2.284912
96.067749 -21.498413 2.936707
96.577087 -19.791931 1.936707
96.871582 -20.791931 2.936707
97.067749 -20.584198 2.936707
97.067749 -19.791931 2.350952
97.709656 -19.791931 2.936707
55.067749 9.208069 -45.328064
55.067749 8.452576 -45.063293
56.067749 9.144562 -45.063293
55.067749 10.208069 -45.666260
56.067749 10.208069 -45.440063
55.067749 12.208069 -46.381042
55.067749 11.208069 -46.016174
56.067749 11.875702 -46.063293
56.067749 12.208069 -46.180542
56.067749 11.208069 -45.802612
57.067749 9.756226 -45.063293
57.067749 10.208069 -45.222534
57.771851 10.208069 -45.063293
56.675964 12.208069 -46.063293
57.067749 11.208069 -45.588196
58.067749 11.208069 -45.372925
58.067749 10.208069 -45.002869
57.067749 12.208069 -45.977356
58.067749 12.208069 -45.765381
59.067749 10.978119 -45.063293
59.067749 11.208069 -45.156067
59.456482 11.208069 -45.063293
59.067749 12.208069 -45.549988
60.067749 11.518402 -45.063293
60.067749 12.208069 -45.330994
61.067749 12.127197 -45.063293
57.286987 -11.791931 -37.063293
56.619629 -7.791931 -39.063293
57.067749 -9.791931 -38.056763
57.067749 -10.791931 -37.598145
58.067749 -11.127808 -37.063293
58.067749 -10.791931 -37.220764
58.067749 -9.791931 -37.669739
58.498840 -10.791931 -37.063293
59.067749 -10.275269 -37.063293
59.067749 -9.791931 -37.263672
59.521790 -9.791931 -37.063293
57.067749 -8.791931 -38.489807
58.067749 -8.887329 -38.063293
57.067749 -7.791931 -38.899658
58.067749 -7.791931 -38.524475
59.067749 -7.941437 -38.063293
59.067749 -8.791931 -37.695313
60.067749 -9.243225 -37.063293
60.067749 -8.791931 -37.258545
60.067749 -7.791931 -37.684509
56.048523 -5.791931 -40.063293
56.067749 -6.791931 -39.657959
56.067749 -4.791931 -40.447205
56.067749 -3.791931 -40.825684
57.067749 -7.372314 -39.063293
57.067749 -6.791931 -39.305542
57.734680 -6.791931 -39.063293
57.067749 -5.791931 -39.714600
58.067749 -5.791931 -39.347351
58.067749 -6.497864 -39.063293
58.815796 -5.791931 -39.063293
57.067749 -4.901215 -40.063293
57.067749 -3.791931 -40.504578
58.067749 -4.037872 -40.063293
58.067749 -3.791931 -40.152588
58.067749 -4.791931 -39.752075
58.322876 -3.791931 -40.063293
59.067749 -5.536041 -39.063293
59.067749 -4.791931 -39.362061
59.804443 -4.791931 -39.063293
59.067749 -3.791931 -39.771240
60.067749 -3.791931 -39.361450
60.067749 -4.549194 -39.063293
58.067749 -6.791931 -38.942261
59.067749 -6.791931 -38.551636
60.067749 -6.917725 -38.063293
59.067749 -5.791931 -38.963562
60.067749 -5.791931 -38.547668
60.067749 -4.791931 -38.959961
60.533142 -8.791931 -37.063293
61.067749 -8.193634 -37.063293
61.067749 -7.791931 -37.221069
61.395813 -7.791931 -37.063293
60.799133 -3.791931 -39.063293
61.067749 -5.867981 -38.063293
61.067749 -6.791931 -37.658386
62.067749 -7.054108 -37.063293
62.067749 -6.791931 -37.184204
62.067749 -5.791931 -37.614990
62.334717 -6.791931 -37.063293
63.067749 -5.921021 -37.063293
61.067749 -4.791931 -38.524780
62.058533 -4.791931 -38.063293
61.067749 -3.791931 -38.943665
62.067749 -3.791931 -38.497803
62.067749 -4.783600 -38.063293
63.067749 -3.791931 -38.022278
63.067749 -4.791931 -37.558716
64.012146 -4.791931 -37.063293
64.067749 -3.791931 -37.497375
64.067749 -4.737579 -37.063293
65.067749 -3.791931 -36.964783
58.067749 -18.791931 -33.022705
58.067749 -17.791931 -33.605164
59.067749 -17.942017 -33.063293
58.067749 -15.791931 -34.767273
58.361023 -16.791931 -34.063293
59.067749 -16.252258 -34.063293
59.067749 -15.791931 -34.326477
59.617249 -15.791931 -34.063293
59.067749 -16.791931 -33.733704
59.230713 -17.791931 -33.063293
60.067749 -17.096283 -33.063293
60.067749 -16.791931 -33.249634
60.067749 -15.791931 -33.854980
58.067749 -15.239075 -35.063293
58.067749 -14.791931 -35.302124
58.067749 -13.791931 -35.812561
58.657043 -14.791931 -35.063293
59.067749 -13.791931 -35.397583
59.067749 -14.462067 -35.063293
59.814026 -13.791931 -35.063293
57.067749 -12.791931 -36.694519
58.067749 -13.271851 -36.063293
58.067749 -12.791931 -36.304321
58.067749 -11.791931 -36.778076
58.668945 -12.791931 -36.063293
59.067749 -11.791931 -36.356934
59.067749 -12.438263 -36.063293
59.690247 -11.791931 -36.063293
59.067749 -12.791931 -35.888306
60.067749 -12.791931 -35.431152
60.067749 -13.557159 -35.063293
60.067749 -11.791931 -35.900818
59.067749 -14.791931 -34.889832
60.067749 -14.791931 -34.425476
60.067749 -15.422699 -34.063293
60.067749 -13.791931 -34.950317
59.067749 -18.791931 -32.554871
59.067749 -19.589081 -32.063293
60.024048 -18.791931 -32.063293
60.067749 -17.791931 -32.659363
60.067749 -18.759521 -32.063293
60.463013 -16.791931 -33.063293
61.067749 -16.260498 -33.063293
61.067749 -15.791931 -33.330872
61.540466 -15.791931 -33.063293
60.858826 -12.791931 -35.063293
61.067749 -11.791931 -35.426086
61.067749 -12.579926 -35.063293
61.816895 -11.791931 -35.063293
60.799805 -14.791931 -34.063293
61.067749 -13.791931 -34.456848
61.067749 -14.533875 -34.063293
61.806396 -13.791931 -34.063293
61.067749 -14.791931 -33.912048
62.067749 -15.277008 -33.063293
62.067749 -14.791931 -33.351685
62.067749 -13.791931 -33.926636
62.595886 -14.791931 -33.063293
63.067749 -13.791931 -33.356140
63.067749 -14.329468 -33.063293
63.560364 -13.791931 -33.063293
61.067749 -12.791931 -34.959900
62.067749 -12.791931 -34.456665
62.067749 -13.531342 -34.063293
62.067749 -11.791931 -34.941345
62.800171 -12.791931 -34.063293
63.067749 -12.499603 -34.063293
63.067749 -11.791931 -34.405762
63.648071 -11.791931 -34.063293
63.067749 -12.791931 -33.903809
64.067749 -13.239410 -33.063293
64.067749 -12.791931 -33.305725
64.067749 -11.791931 -33.822815
64.493164 -12.791931 -33.063293
65.067749 -12.107849 -33.063293
65.067749 -11.791931 -33.212769
65.303711 -11.791931 -33.063293
61.067749 -17.895721 -32.063293
61.067749 -18.791931 -31.500977
61.067749 -19.467102 -31.063293
61.806702 -18.791931 -31.063293
62.067749 -17.791931 -31.546631
62.067749 -18.550446 -31.063293
62.824646 -17.791931 -31.063293
61.067749 -16.791931 -32.742065
62.067749 -16.949188 -32.063293
62.067749 -15.791931 -32.775940
62.233032 -16.791931 -32.063293
63.067749 -15.958191 -32.063293
63.067749 -17.530792 -31.063293
63.067749 -16.791931 -31.535217
63.772217 -16.791931 -31.063293
64.067749 -15.791931 -31.529053
63.224792 -15.791931 -32.063293
64.067749 -16.498840 -31.063293
62.067749 -18.791931 -30.898315
63.067749 -18.977112 -30.063293
63.067749 -18.791931 -30.202148
63.248352 -18.791931 -30.063293
63.067749 -17.791931 -30.894836
64.067749 -17.936737 -30.063293
64.067749 -18.791931 -29.441833
64.067749 -19.276978 -29.063293
64.067749 -16.791931 -30.860474
64.761292 -15.791931 -31.063293
64.554260 -18.791931 -29.063293
65.067749 -18.230835 -29.063293
65.067749 -17.791931 -29.378845
65.456116 -17.791931 -29.063293
65.067749 -16.859161 -30.063293
65.067749 -15.791931 -30.840576
66.067749 -15.822021 -30.063293
66.067749 -17.142944 -29.063293
66.067749 -16.791931 -29.334961
66.426758 -16.791931 -29.063293
67.067749 -16.128296 -29.063293
67.067749 -15.791931 -29.302246
67.357483 -15.791931 -29.063293
63.067749 -14.791931 -32.786804
64.067749 -14.956024 -32.063293
64.067749 -13.791931 -32.773926
64.243042 -14.791931 -32.063293
65.067749 -13.906738 -32.063293
65.067749 -15.460144 -31.063293
65.067749 -14.791931 -31.510803
65.699402 -14.791931 -31.063293
66.067749 -14.398621 -31.063293
66.067749 -13.791931 -31.447144
66.617004 -13.791931 -31.063293
65.067749 -12.791931 -32.701477
66.067749 -12.791931 -32.035034
66.067749 -11.791931 -32.590088
66.849487 -11.791931 -32.063293
67.067749 -13.264435 -31.063293
67.067749 -12.791931 -31.342163
67.453735 -12.791931 -31.063293
67.067749 -11.791931 -31.910034
68.067749 -12.030182 -31.063293
68.067749 -11.791931 -31.193237
66.067749 -14.791931 -30.800720
67.067749 -14.791931 -30.041443
67.067749 -13.791931 -30.732056
68.067749 -13.791931 -29.965881
68.067749 -15.044891 -29.063293
68.067749 -14.791931 -29.258850
68.067749 -12.791931 -30.612427
59.067749 -10.791931 -36.823608
60.067749 -11.419128 -36.063293
60.067749 -10.791931 -36.369446
60.067749 -9.791931 -36.834839
60.732788 -10.791931 -36.063293
61.067749 -10.435333 -36.063293
61.067749 -9.791931 -36.356812
61.645447 -9.791931 -36.063293
61.067749 -10.791931 -35.893372
62.067749 -11.517792 -35.063293
62.067749 -10.791931 -35.398865
62.067749 -9.791931 -35.861206
62.731628 -10.791931 -35.063293
63.067749 -10.404205 -35.063293
63.067749 -9.791931 -35.340149
63.572083 -9.791931 -35.063293
61.067749 -8.791931 -36.803345
62.067749 -9.324738 -36.063293
62.067749 -8.791931 -36.309998
62.067749 -7.791931 -36.754150
62.565918 -8.791931 -36.063293
63.067749 -8.213348 -36.063293
63.067749 -7.791931 -36.241028
63.385986 -7.791931 -36.063293
63.067749 -8.791931 -35.797546
64.067749 -9.190491 -35.063293
64.067749 -8.791931 -35.246704
64.067749 -7.791931 -35.700684
63.067749 -10.791931 -34.884460
64.067749 -11.282928 -34.063293
64.067749 -10.791931 -34.309570
64.067749 -9.791931 -34.788879
64.402222 -8.791931 -35.063293
65.067749 -7.929382 -35.063293
64.499268 -10.791931 -34.063293
65.067749 -10.075470 -34.063293
65.067749 -9.791931 -34.192505
65.272644 -9.791931 -34.063293
65.067749 -10.791931 -33.709534
66.067749 -10.859283 -33.063293
66.067749 -9.791931 -33.579834
66.895142 -9.791931 -33.063293
65.067749 -8.791931 -34.673706
66.067749 -8.791931 -34.062866
66.067749 -7.791931 -34.526489
66.827515 -7.791931 -34.063293
67.067749 -9.534637 -33.063293
67.067749 -8.791931 -33.427307
67.609436 -8.791931 -33.063293
67.067749 -7.791931 -33.907471
68.067749 -8.191132 -33.063293
68.067749 -7.791931 -33.247559
63.067749 -6.791931 -36.690735
64.067749 -6.959412 -36.063293
64.067749 -5.791931 -36.590637
64.216187 -6.791931 -36.063293
65.067749 -5.791931 -36.010986
65.067749 -6.791931 -35.565918
66.067749 -6.791931 -34.971375
66.067749 -6.585052 -35.063293
66.067749 -5.791931 -35.418030
66.676941 -5.791931 -35.063293
65.067749 -4.791931 -36.482239
65.757141 -4.791931 -36.063293
66.067749 -4.443237 -36.063293
66.067749 -3.791931 -36.386414
66.067749 -4.791931 -35.885864
66.615662 -3.791931 -36.063293
67.067749 -5.283783 -35.063293
67.067749 -4.791931 -35.296082
67.459167 -4.791931 -35.063293
67.067749 -3.791931 -35.790039
68.067749 -4.050049 -35.063293
68.067749 -3.791931 -35.184265
67.067749 -7.429840 -34.063293
67.067749 -6.791931 -34.365295
67.540344 -6.791931 -34.063293
67.067749 -5.791931 -34.833984
68.067749 -6.142487 -34.063293
68.067749 -5.791931 -34.225525
68.067749 -6.791931 -33.736694
68.067749 -4.791931 -34.706299
67.067749 -11.491821 -32.063293
67.067749 -10.791931 -32.451355
67.612793 -10.791931 -32.063293
67.067749 -9.791931 -32.949097
68.067749 -10.189789 -32.063293
68.067749 -9.791931 -32.255798
68.067749 -10.791931 -31.746338
68.067749 -8.791931 -32.762085
56.067749 -3.109406 -41.063293
56.067749 -2.791931 -41.182495
56.067749 -1.791931 -41.534485
55.460876 -0.791931 -42.063293
55.067749 0.208069 -42.526306
56.067749 -0.287628 -42.063293
56.067749 0.208069 -42.216431
56.067749 -0.791931 -41.884705
56.480347 -2.791931 -41.063293
57.067749 -2.267487 -41.063293
57.067749 -1.791931 -41.222351
57.538574 -1.791931 -41.063293
56.590759 0.208069 -42.063293
57.067749 -0.791931 -41.566162
58.067749 -1.281128 -41.063293
58.067749 -0.791931 -41.236694
57.067749 0.208069 -41.905029
58.067749 0.208069 -41.575500
58.593811 -0.791931 -41.063293
59.067749 -0.311432 -41.063293
59.067749 0.208069 -41.236206
59.543152 0.208069 -41.063293
55.067749 1.951141 -43.063293
55.316406 2.208069 -43.063293
55.067749 3.208069 -43.433777
56.067749 2.916962 -43.063293
56.067749 3.208069 -43.152283
55.067749 4.208069 -43.727600
56.067749 4.208069 -43.453552
55.067749 1.208069 -42.841919
56.067749 1.208069 -42.540344
56.067749 2.208069 -42.850891
56.392029 3.208069 -43.063293
57.067749 3.806732 -43.063293
57.067749 4.208069 -43.187195
57.523621 4.208069 -43.063293
57.067749 0.716797 -42.063293
57.067749 1.208069 -42.232483
57.592163 1.208069 -42.063293
57.067749 2.208069 -42.557983
58.067749 1.616913 -42.063293
58.067749 2.208069 -42.252136
58.067749 1.208069 -41.918579
58.697266 2.208069 -42.063293
59.067749 1.208069 -41.586975
60.067749 0.722015 -41.063293
60.067749 1.208069 -41.246582
59.067749 2.208069 -41.940430
60.067749 2.208069 -41.610046
57.067749 3.208069 -42.872498
58.067749 3.208069 -42.586304
58.067749 4.208069 -42.918335
59.067749 2.582123 -42.063293
59.067749 3.208069 -42.287415
59.776245 3.208069 -42.063293
59.067749 4.208069 -42.644714
60.067749 4.208069 -42.350708
60.067749 3.420685 -42.063293
60.067749 3.208069 -41.979919
57.067749 -2.791931 -40.874329
58.067749 -2.791931 -40.538025
58.067749 -1.791931 -40.895020
59.067749 -3.022034 -40.063293
59.067749 -2.791931 -40.158325
59.292175 -2.791931 -40.063293
59.067749 -1.791931 -40.534729
60.067749 -2.004211 -40.063293
60.067749 -1.791931 -40.139832
60.067749 -2.791931 -39.756836
59.067749 -0.791931 -40.891785
60.067749 -0.791931 -40.522034
60.067749 0.208069 -40.888062
60.631653 1.208069 -41.063293
61.067749 2.208069 -41.278870
61.067749 1.608643 -41.063293
61.683594 2.208069 -41.063293
61.015198 4.208069 -42.063293
61.067749 3.208069 -41.657593
62.067749 2.564484 -41.063293
