100.787071 71.389671 -17.875311
100.787071 71.552788 -18.442327
100.967979 71.552788 -17.875311
101.787079 72.231804 -17.875311
100.787071 71.028008 -16.875309
101.397423 71.552788 -16.875309
101.787079 71.867210 -16.875309
96.615685 65.552788 -15.875310
96.787071 65.826408 -15.875310
97.242943 66.552788 -15.875310
96.787071 65.552788 -15.230596
96.787071 65.376823 -14.875309
96.901146 65.552788 -14.875309
97.559166 66.552788 -14.875309
97.787071 67.552788 -16.338657
97.787071 67.381950 -15.875310
97.787071 66.889214 -14.875309
97.422264 65.552788 -13.875309
97.787071 66.552788 -14.392582
97.787071 66.072411 -13.875309
97.787071 64.642143 -12.875309
97.787071 65.552788 -13.424900
97.909081 67.552788 -15.875310
98.688072 68.552788 -15.875310
98.308678 67.552788 -14.875309
98.787071 68.552788 -15.631749
98.787071 68.117058 -14.875309
99.190880 68.552788 -14.875309
98.153404 66.552788 -13.875309
98.429955 65.552788 -12.875309
98.787071 65.983330 -12.875309
98.787071 66.552788 -13.246616
99.300194 66.552788 -12.875309
98.787071 67.552788 -14.140659
98.787071 67.304832 -13.875309
99.028160 67.552788 -13.875309
99.787071 68.250786 -13.875309
99.787071 68.552788 -14.174229
99.787071 67.552788 -13.260288
99.787071 67.023521 -12.875309
100.164940 68.552788 -13.875309
100.449547 67.552788 -12.875309
100.787071 67.811699 -12.875309
100.787071 68.552788 -13.437992
101.719810 68.552788 -12.875309
99.650902 69.552788 -15.875310
99.787071 69.104851 -14.875309
99.787071 69.552788 -15.628148
100.785179 70.552788 -15.875310
100.339745 69.552788 -14.875309
100.787071 69.915825 -14.875309
100.787071 70.552788 -15.872563
101.557213 70.552788 -14.875309
101.787079 71.552788 -16.144718
101.787079 71.397728 -15.875310
101.787079 70.742119 -14.875309
100.787071 69.053123 -13.875309
100.787071 69.552788 -14.409397
101.405846 69.552788 -13.875309
101.787079 70.552788 -14.625187
101.787079 69.854454 -13.875309
101.787079 69.552788 -13.599064
101.787079 68.606438 -12.875309
102.208344 72.552788 -17.875311
102.648773 72.552788 -16.875309
101.964874 71.552788 -15.875310
102.787079 72.259148 -15.875310
102.787079 72.552788 -16.535954
103.127533 72.552788 -15.875310
102.787079 71.552788 -14.735111
103.718353 72.552788 -14.875309
102.548187 70.552788 -13.875309
102.787079 69.552788 -12.868504
102.787079 70.552788 -13.652561
103.787079 70.552788 -12.785648
102.787079 70.788475 -13.875309
103.522003 71.552788 -13.875309
103.787079 71.831505 -13.875309
103.787079 72.552788 -14.771915
103.787079 71.552788 -13.595310
104.439911 72.552788 -13.875309
104.496368 71.552788 -12.875309
104.787079 71.927055 -12.875309
104.787079 72.552788 -13.441959
105.252716 72.552788 -12.875309
101.787079 54.552784 -12.499821
99.787071 56.552784 -12.583317
100.787071 55.552784 -12.529789
101.787079 55.552784 -12.157383
100.787071 56.552784 -12.203068
101.787079 56.408649 -11.875309
109.787079 42.552780 -12.742222
109.787079 43.552780 -12.469761
108.787079 44.552780 -12.660160
109.787079 44.552780 -12.172794
107.787079 46.552780 -12.607304
108.787079 45.552780 -12.378086
109.787079 45.515182 -11.875309
108.787079 46.552780 -12.079807
109.153839 46.552780 -11.875309
109.787079 46.552780 -11.563755
107.787079 47.552780 -12.312504
106.787079 48.552780 -12.512119
107.787079 48.552780 -11.991642
108.787079 47.239944 -11.875309
108.787079 47.552780 -11.776676
108.014374 48.552780 -11.875309
109.787079 47.552780 -11.250034
108.787079 48.552780 -11.464573
109.915497 48.552780 -10.875309
110.787079 41.552780 -12.648106
111.787079 41.552780 -12.334751
110.787079 42.552780 -12.361607
111.787079 42.552780 -11.994572
112.787079 41.552780 -12.017399
113.787079 41.128220 -11.875309
113.207611 41.552780 -11.875309
112.787079 41.914139 -11.875309
112.134491 42.552780 -11.875309
113.787079 41.552780 -11.696690
112.787079 42.552780 -11.640720
113.787079 42.552780 -11.274357
110.787079 43.552780 -12.037449
111.787079 42.902817 -11.875309
111.167572 43.552780 -11.875309
110.787079 44.022507 -11.875309
110.445343 44.552780 -11.875309
111.787079 43.552780 -11.639011
110.787079 44.552780 -11.715092
111.787079 44.552780 -11.281834
112.787079 43.552780 -11.243198
113.697662 43.552780 -10.875309
113.787079 43.472000 -10.875309
112.787079 44.503220 -10.875309
113.787079 44.552780 -10.421359
114.787079 41.552780 -11.335239
115.866974 41.552780 -10.875309
114.783295 42.552780 -10.875309
114.787079 42.549179 -10.875309
115.787079 42.552780 -10.406955
116.787079 41.552780 -10.413547
117.723602 41.552780 -9.875308
117.787079 41.493027 -9.875308
116.787079 42.539261 -9.875308
117.787079 42.552780 -9.259677
114.787079 43.552780 -10.398044
115.807037 43.552780 -9.875308
114.889130 44.552780 -9.875308
115.787079 44.552780 -9.392459
116.787079 43.552780 -9.315982
117.787079 43.226547 -8.875308
117.485260 43.552780 -8.875308
116.787079 44.397049 -8.875308
110.787079 45.552780 -11.387516
111.787079 45.713882 -10.875309
110.787079 46.552780 -11.068089
111.191803 46.552780 -10.875309
111.914520 45.552780 -10.875309
110.787079 47.159897 -10.875309
110.540436 47.552780 -10.875309
111.787079 46.552780 -10.598636
112.787079 45.552780 -10.484286
113.787079 45.552780 -10.003543
112.787079 46.552780 -10.110751
113.787079 45.855026 -9.875308
113.241669 46.552780 -9.875308
113.787079 46.552780 -9.606357
110.787079 47.552780 -10.751895
111.787079 47.552780 -10.259433
110.787079 48.552780 -10.436831
111.896820 48.552780 -9.875308
112.787079 47.229813 -9.875308
112.562592 47.552780 -9.875308
112.787079 47.552780 -9.756991
113.787079 47.552780 -9.235904
112.787079 48.552780 -9.416049
113.839142 48.552780 -8.875308
114.060577 45.552780 -9.875308
114.787079 45.552780 -9.485965
115.893646 45.552780 -8.875308
114.787079 46.552780 -9.069400
115.131866 46.552780 -8.875308
114.787079 47.082016 -8.875308
114.484894 47.552780 -8.875308
117.787079 43.552780 -8.681064
117.787079 44.552780 -8.121188
115.787079 46.552780 -8.502353
116.787079 45.552780 -8.316195
117.787079 45.036667 -7.875308
117.406525 45.552780 -7.875308
116.787079 46.477432 -7.875308
117.787079 45.552780 -7.594485
117.787079 46.552780 -7.071871
114.787079 47.552780 -8.701358
115.787079 47.552780 -8.094882
114.787079 48.552780 -8.349216
115.787079 48.103622 -7.875308
115.539764 48.552780 -7.875308
115.787079 48.552780 -7.720187
116.129364 47.552780 -7.875308
116.787079 47.552780 -7.408846
117.787079 46.953903 -6.875308
117.455414 47.552780 -6.875308
116.943634 48.552780 -6.875308
117.787079 47.552780 -6.579531
117.787079 48.552780 -6.114748
105.787079 49.552784 -12.659031
104.787079 50.552784 -12.738651
105.787079 50.552784 -12.299809
103.787079 51.552784 -12.782261
103.787079 52.552784 -12.413334
104.787079 51.552784 -12.368626
105.903229 51.552784 -11.875309
104.787079 52.552784 -11.989414
105.037567 52.552784 -11.875309
105.787079 52.552784 -11.569096
106.787079 49.552784 -12.177891
107.787079 48.935444 -11.875309
107.364899 49.552784 -11.875309
106.787079 50.395283 -11.875309
107.787079 49.552784 -11.668888
107.787079 50.552784 -11.328831
108.787079 49.552784 -11.147282
109.787079 48.766682 -10.875309
109.304108 49.552784 -10.875309
108.787079 50.391529 -10.875309
106.787079 51.552784 -11.471317
107.787079 51.552784 -10.991978
106.787079 52.552784 -11.125309
107.787079 51.893696 -10.875309
107.333710 52.552784 -10.875309
108.032318 51.552784 -10.875309
109.787079 49.552784 -10.637088
109.787079 50.552784 -10.324313
107.787079 52.552784 -10.673373
108.787079 51.552784 -10.516452
109.787079 51.552784 -10.027957
108.787079 52.552784 -10.213138
109.787079 52.081348 -9.875308
109.508636 52.552784 -9.875308
109.787079 52.552784 -9.755496
102.787079 53.552784 -12.458012
103.787079 53.552784 -12.047825
102.787079 54.552784 -12.106327
103.787079 54.038715 -11.875309
103.357208 54.552784 -11.875309
103.787079 54.552784 -11.717350
104.787079 52.888355 -11.875309
104.225067 53.552784 -11.875309
104.787079 53.552784 -11.642582
105.787079 53.552784 -11.228794
104.787079 54.552784 -11.321293
105.899200 54.552784 -10.875309
102.787079 55.258595 -11.875309
102.544708 55.552784 -11.875309
102.787079 55.552784 -11.778843
103.787079 55.552784 -11.405613
102.787079 56.552784 -11.482609
103.787079 56.552784 -11.124149
104.787079 55.552784 -11.024265
105.158966 55.552784 -10.875309
104.787079 56.071552 -10.875309
104.465179 56.552784 -10.875309
105.787079 55.552784 -10.638247
104.787079 56.552784 -10.757754
105.787079 56.552784 -10.382266
106.787079 53.334888 -10.875309
106.787079 53.552784 -10.806705
107.787079 53.552784 -10.375461
106.787079 54.552784 -10.516757
107.787079 54.552784 -10.095401
108.904572 53.552784 -9.875308
108.787079 53.747944 -9.875308
108.327484 54.552784 -9.875308
109.787079 53.552784 -9.491214
108.787079 54.552784 -9.674167
109.787079 54.552784 -9.248202
106.787079 55.552784 -10.236789
107.787079 55.391621 -9.875308
106.787079 56.552784 -9.988284
107.058197 56.552784 -9.875308
107.787079 56.552784 -9.591556
108.787079 55.552784 -9.422793
109.787079 55.552784 -9.016635
108.787079 56.552784 -9.189914
109.787079 56.153492 -8.875308
109.563080 56.552784 -8.875308
109.787079 56.552784 -8.791690
110.787079 49.552784 -10.124179
111.787079 48.735157 -9.875308
111.266998 49.552784 -9.875308
110.787079 50.358631 -9.875308
111.787079 49.552784 -9.620669
111.787079 50.552784 -9.325931
112.787079 49.552784 -9.111697
113.239655 49.552784 -8.875308
112.787079 50.383381 -8.875308
110.120026 51.552784 -9.875308
110.787079 51.552784 -9.543857
111.787079 51.552784 -9.067874
110.787079 52.552784 -9.288028
111.787079 52.353596 -8.875308
112.212006 51.552784 -8.875308
110.787079 53.552784 -9.051242
111.176117 53.552784 -8.875308
110.787079 54.330860 -8.875308
110.787079 54.552784 -8.830142
110.157745 55.552784 -8.875308
113.787079 49.552784 -8.598910
113.787079 50.552784 -8.304294
112.787079 51.552784 -8.587314
113.787079 51.552784 -8.033999
112.787079 52.552784 -8.347842
113.787079 52.178547 -7.875308
113.787079 52.552784 -7.791903
114.787079 49.552784 -8.017673
115.011932 49.552784 -7.875308
114.787079 49.995655 -7.875308
114.531464 50.552784 -7.875308
115.787079 49.552784 -7.378329
114.787079 50.552784 -7.713809
115.787079 50.552784 -7.060244
116.787079 48.903339 -6.875308
116.489471 49.552784 -6.875308
116.049591 50.552784 -6.875308
114.070221 51.552784 -7.875308
114.787079 51.552784 -7.434145
115.787079 51.164539 -6.875308
115.787079 51.552784 -6.757113
114.787079 52.552784 -7.177584
115.235443 52.552784 -6.875308
116.787079 49.552784 -6.631716
117.787079 49.129230 -5.875307
117.601837 49.552784 -5.875307
116.787079 50.552784 -6.267062
117.196625 50.552784 -5.875307
117.787079 49.552784 -5.686007
117.787079 50.552784 -5.221468
115.787079 52.552784 -6.454989
116.808929 51.552784 -5.875307
116.431305 52.552784 -5.875307
117.787079 51.218067 -4.875307
117.652740 51.552784 -4.875307
116.787079 52.552784 -5.496126
117.268707 52.552784 -4.875307
111.787079 53.552784 -8.610782
111.787079 54.552784 -8.386752
112.787079 53.552784 -8.109500
113.205292 53.552784 -7.875308
112.787079 54.547047 -7.875308
113.787079 53.552784 -7.551455
113.787079 54.552784 -7.297640
110.787079 55.552784 -8.607577
111.787079 55.552784 -8.142154
110.787079 56.552784 -8.364413
111.787079 56.544178 -7.875308
112.322906 55.552784 -7.875308
112.787079 55.552784 -7.619326
113.787079 55.552784 -7.008181
112.787079 56.552784 -7.315066
113.787079 55.933857 -6.875308
113.468414 56.552784 -6.875308
113.787079 56.552784 -6.644320
114.850800 53.552784 -6.875308
114.449677 54.552784 -6.875308
113.988434 55.552784 -6.875308
115.787079 53.552784 -6.123965
114.787079 54.552784 -6.625094
115.787079 54.210773 -5.875307
115.787079 54.552784 -5.741243
116.046783 53.552784 -5.875307
116.874969 53.552784 -4.875307
116.787079 53.764332 -4.875307
116.472565 54.552784 -4.875307
114.787079 55.552784 -6.252200
115.197235 55.552784 -5.875307
114.787079 56.353352 -5.875307
114.787079 56.552784 -5.776613
115.787079 55.552784 -5.213564
115.787079 56.019917 -4.875307
115.517975 56.552784 -4.875307
116.022919 55.552784 -4.875307
117.787079 51.552784 -4.670198
117.787079 52.552784 -3.935365
117.787079 52.623371 -3.875307
117.412872 53.552784 -3.875307
116.787079 54.552784 -4.307009
116.983734 54.552784 -3.875307
117.787079 53.334949 -2.875307
117.695648 53.552784 -2.875307
117.293610 54.552784 -2.875307
115.787079 56.552784 -4.435549
116.787079 55.016071 -3.875307
116.536896 55.552784 -3.875307
116.052948 56.552784 -3.875307
116.787079 55.552784 -3.112794
116.846893 55.552784 -2.875307
116.371185 56.552784 -2.875307
117.787079 53.552784 -2.231141
117.436676 54.552784 -1.875306
117.815582 53.552784 -1.875306
117.419342 54.552784 -0.875306
117.787079 53.552784 -0.719483
117.004303 55.552784 -1.875306
116.787079 55.995655 -1.875306
116.529205 56.552784 -1.875306
116.990265 55.552784 -0.875306
116.524811 56.552784 -0.875306
116.787079 55.974689 -0.875306
117.787079 49.639484 3.124695
117.787079 50.552784 2.525970
117.401581 50.552784 3.124695
117.787079 51.181965 2.124695
117.787079 51.552784 1.865570
117.647308 51.552784 2.124695
117.277313 52.552784 2.124695
117.787079 52.414234 1.124694
117.003448 51.552784 3.124695
116.787079 52.099659 3.124695
116.787079 52.552784 2.887878
116.622650 52.552784 3.124695
117.787079 53.209492 0.124694
117.647003 53.552784 0.124694
117.247162 54.552784 0.124694
117.347137 53.552784 1.124694
116.925568 54.552784 1.124694
116.787079 55.552784 0.229247
116.363373 56.552784 0.124694
116.787079 54.895527 1.124694
116.503265 55.552784 1.124694
116.052887 56.552784 1.124694
116.787079 53.714710 2.124695
116.787079 54.552784 1.443695
116.435638 54.552784 2.124695
116.192352 53.552784 3.124695
115.787079 54.413227 3.124695
115.787079 55.986683 2.124695
115.787079 56.552784 1.693969
115.532745 56.552784 2.124695
115.787079 55.552784 2.438232
115.249908 55.552784 3.124695
114.787079 56.490620 3.124695
115.996674 55.552784 2.124695
97.787071 59.552784 -12.672733
97.787071 60.552784 -12.506077
98.787071 57.552784 -12.692142
99.787071 57.552784 -12.277866
98.787071 58.552784 -12.426060
99.787071 58.552784 -12.002171
100.833153 57.552784 -11.875309
100.134361 58.552784 -11.875309
101.787079 57.552784 -11.551273
100.787071 58.552784 -11.642796
101.787079 58.552784 -11.317081
98.787071 59.552784 -12.192142
99.787071 59.096943 -11.875309
99.515099 59.552784 -11.875309
98.787071 60.552784 -12.025364
99.124535 60.552784 -11.875309
99.787071 59.552784 -11.779453
99.787071 60.552784 -11.632450
100.787071 59.552784 -11.438023
101.787079 59.552784 -11.137302
100.787071 60.552784 -11.305271
101.787079 60.552784 -11.022312
97.787071 61.552784 -12.418064
97.787071 62.552784 -12.417912
97.787071 63.552784 -12.546757
98.950890 61.552784 -11.875309
98.960838 62.552784 -11.875309
99.787071 61.552784 -11.573429
99.787071 62.552784 -11.599918
100.787071 61.552784 -11.260715
101.787079 61.552784 -10.982090
100.787071 62.552784 -11.302982
101.787079 62.552784 -11.023930
98.787071 63.552784 -12.047947
99.225792 63.552784 -11.875309
98.787071 64.552788 -12.269474
99.787071 64.528465 -11.875309
99.787071 63.552784 -11.704746
100.787071 63.552784 -11.418613
101.787079 63.552784 -11.144413
100.787071 64.552788 -11.586735
101.787079 64.552788 -11.306065
98.787071 65.552788 -12.650913
99.787071 65.552788 -12.189701
99.787071 66.552788 -12.624027
100.787071 65.552788 -11.835484
100.787071 66.552788 -12.196293
101.610497 66.552788 -11.875309
101.787079 65.552788 -11.522099
100.787071 67.552788 -12.706944
101.787079 67.552788 -12.256474
101.787079 66.723015 -11.875309
102.787079 57.552784 -11.213322
103.787079 57.546955 -10.875309
102.787079 58.552784 -10.997990
103.168243 58.552784 -10.875309
102.787079 59.282032 -10.875309
102.787079 59.552784 -10.838443
102.327911 60.552784 -10.875309
103.787079 58.552784 -10.683414
104.787079 57.552784 -10.531802
105.787079 57.552784 -10.156466
104.787079 58.552784 -10.349277
105.787079 58.552784 -9.972903
103.787079 59.552784 -10.540011
102.787079 60.552784 -10.743960
103.787079 60.552784 -10.445621
104.787079 59.552784 -10.205356
105.787079 59.223255 -9.875308
105.787079 59.552784 -9.829196
104.787079 60.552784 -10.103183
105.377899 60.552784 -9.875308
105.787079 60.552784 -9.722476
106.787079 57.082447 -9.875308
106.534576 57.552784 -9.875308
106.057953 58.552784 -9.875308
106.787079 57.552784 -9.770846
107.787079 57.552784 -9.372928
106.787079 58.552784 -9.583255
107.787079 58.552784 -9.183932
108.787079 57.552784 -8.974460
109.020233 57.552784 -8.875308
108.787079 58.006855 -8.875308
108.553802 58.552784 -8.875308
106.787079 59.552784 -9.430972
107.787079 59.552784 -9.022250
106.787079 60.552784 -9.309390
107.787079 60.547779 -8.875308
108.148529 59.552784 -8.875308
102.194611 61.552784 -10.875309
102.335358 62.552784 -10.875309
102.787079 63.552784 -10.852176
102.787079 64.552788 -11.003849
103.154755 64.552788 -10.875309
102.787079 61.552784 -10.710879
103.787079 61.552784 -10.410892
102.787079 62.552784 -10.745486
103.787079 62.552784 -10.439578
104.787079 61.552784 -10.053622
105.227142 61.552784 -9.875308
104.787079 62.552784 -10.060061
105.207001 62.552784 -9.875308
105.787079 61.552784 -9.653415
105.787079 62.552784 -9.625155
103.787079 63.552784 -10.524295
103.787079 64.552788 -10.642398
104.787079 63.552784 -10.114261
105.288422 63.552784 -9.875308
104.787079 64.552788 -10.202823
105.436859 64.552788 -9.875308
105.787079 63.552784 -9.640384
105.787079 64.552788 -9.699679
106.787079 61.552784 -9.217349
107.521271 61.552784 -8.875308
106.787079 62.552784 -9.158999
107.353546 62.552784 -8.875308
106.787079 63.552784 -9.136569
107.271149 63.552784 -8.875308
106.787079 64.552788 -9.153232
107.261017 64.552788 -8.875308
109.787079 57.552784 -8.562472
108.787079 58.552784 -8.771548
109.787079 58.552784 -8.311831
108.787079 59.552784 -8.580020
109.787079 59.552784 -8.058169
108.787079 60.552784 -8.388644
109.787079 60.271931 -7.875308
109.787079 60.552784 -7.812045
107.787079 61.552784 -8.752139
107.787079 62.552784 -8.654391
108.787079 61.552784 -8.205234
109.307648 61.552784 -7.875308
108.787079 62.552784 -8.036807
109.018280 62.552784 -7.875308
109.787079 61.552784 -7.560854
109.787079 62.552784 -7.307192
107.787079 63.552784 -8.586642
107.787079 64.552788 -8.553409
108.821075 63.552784 -7.875308
108.787079 63.769672 -7.875308
108.787079 64.552788 -7.809359
109.787079 63.552784 -7.074038
109.793304 64.552788 -6.875308
110.787079 57.552784 -8.091861
111.201019 57.552784 -7.875308
110.787079 58.275501 -7.875308
110.787079 58.552784 -7.794100
111.787079 57.552784 -7.563906
111.787079 58.552784 -7.199465
112.885040 57.552784 -6.875308
112.271881 58.552784 -6.875308
110.131439 59.552784 -7.875308
110.787079 59.552784 -7.477236
111.787079 59.358601 -6.875308
111.787079 59.552784 -6.788821
110.787079 60.552784 -7.135378
111.127716 60.552784 -6.875308
113.787079 57.552784 -6.161166
112.787079 58.552784 -6.475222
113.787079 58.039997 -5.875307
113.467621 58.552784 -5.875307
113.787079 58.552784 -5.567415
111.787079 60.552784 -6.308535
112.838593 59.552784 -5.875307
112.238312 60.552784 -5.875307
113.787079 59.459614 -4.875307
112.787079 60.552784 -5.269045
113.091156 60.552784 -4.875307
114.103912 57.552784 -5.875307
114.787079 57.552784 -5.113619
114.959198 57.552784 -4.875307
114.787079 57.836445 -4.875307
114.360138 58.552784 -4.875307
110.787079 61.291279 -6.875308
110.787079 61.552784 -6.772128
110.292328 62.552784 -6.875308
109.994415 63.552784 -6.875308
111.787079 61.401600 -5.875307
110.787079 62.552784 -6.389590
111.266327 62.552784 -5.875307
111.787079 62.552784 -5.231874
112.787079 61.100544 -4.875307
112.529327 61.552784 -4.875307
112.035553 62.552784 -4.875307
110.912140 63.552784 -5.875307
110.787079 63.968433 -5.875307
110.657135 64.552788 -5.875307
111.787079 63.147175 -4.875307
111.633514 63.552784 -4.875307
110.787079 64.552788 -5.708345
111.333771 64.552788 -4.875307
102.787079 65.552788 -11.187962
103.595184 65.552788 -10.875309
102.787079 66.552788 -11.439152
103.787079 65.968193 -10.875309
103.787079 66.552788 -11.010105
104.077545 66.552788 -10.875309
102.787079 67.552788 -11.794865
102.787079 68.552788 -12.288609
103.496368 68.552788 -11.875309
103.787079 67.552788 -11.309605
103.787079 68.552788 -11.713596
104.787079 67.552788 -10.778842
104.787079 67.863365 -10.875309
104.787079 68.552788 -11.111118
105.157074 68.552788 -10.875309
103.787079 65.552788 -10.797244
104.787079 65.552788 -10.337039
105.787079 65.552788 -9.804446
104.787079 66.552788 -10.525271
105.787079 66.055382 -9.875308
105.924530 66.552788 -9.875308
105.787079 67.552788 -10.172793
105.787079 68.552788 -10.456943
106.787079 65.552788 -9.214328
107.316864 65.552788 -8.875308
106.787079 66.552788 -9.327121
107.438202 66.552788 -8.875308
106.257050 67.552788 -9.875308
106.600494 68.552788 -9.875308
106.787079 67.552788 -9.502994
107.616180 67.552788 -8.875308
106.787079 68.552788 -9.729373
107.787079 68.395256 -8.875308
103.787079 68.933189 -11.875309
103.787079 69.552788 -12.191227
104.250580 69.552788 -11.875309
104.787079 70.372490 -11.875309
104.892731 70.552788 -11.875309
104.787079 69.552788 -11.501102
105.787079 69.552788 -10.771029
105.787079 69.856712 -10.875309
105.787079 70.552788 -11.137699
104.787079 71.552788 -12.585300
105.517609 71.552788 -11.875309
105.787079 71.964897 -11.875309
105.787079 72.552788 -12.251408
105.787079 71.552788 -11.621799
106.094879 70.552788 -10.875309
106.130890 72.552788 -11.875309
106.552399 71.552788 -10.875309
106.787079 72.045006 -10.875309
106.787079 72.552788 -11.143559
107.019745 72.552788 -10.875309
106.787079 69.165245 -9.875308
106.914337 69.552788 -9.875308
106.787079 70.552788 -10.276614
107.228119 70.552788 -9.875308
107.787079 69.552788 -9.102237
107.787079 70.552788 -9.340610
108.027191 69.552788 -8.875308
108.232330 70.552788 -8.875308
106.787079 71.552788 -10.644382
107.544403 71.552788 -9.875308
107.787079 72.276115 -9.875308
107.877594 72.552788 -9.875308
107.787079 71.552788 -9.618899
108.435944 71.552788 -8.875308
108.662445 72.552788 -8.875308
107.787079 65.552788 -8.560672
107.787079 66.552788 -8.622836
108.787079 65.552788 -7.759921
108.787079 66.552788 -7.764376
109.787079 65.552788 -6.754031
109.641022 66.552788 -6.875308
107.787079 67.552788 -8.741366
108.787079 67.552788 -7.826418
108.787079 68.038902 -7.875308
108.843170 68.552788 -7.875308
109.652679 67.552788 -6.875308
109.787079 68.552788 -6.760928
109.787079 66.552788 -6.697848
109.787079 67.552788 -6.703097
108.787079 69.552788 -8.076571
108.966644 69.552788 -7.875308
108.787079 70.552788 -8.238528
109.090790 70.552788 -7.875308
109.787079 69.552788 -6.850955
109.787079 69.804863 -6.875308
109.831818 70.552788 -6.875308
108.787079 71.552788 -8.430392
109.215851 71.552788 -7.875308
108.787079 72.552788 -8.696933
109.359589 72.552788 -7.875308
109.886993 71.552788 -6.875308
109.787079 72.552788 -7.183749
110.492462 65.552788 -5.875307
110.409943 66.552788 -5.875307
110.787079 65.552788 -5.457552
111.126007 65.552788 -4.875307
110.787079 66.552788 -5.292177
111.005219 66.552788 -4.875307
110.386566 67.552788 -5.875307
110.403717 68.552788 -5.875307
110.787079 67.552788 -5.220217
110.954193 67.552788 -4.875307
110.787079 68.552788 -5.227297
110.951263 68.552788 -4.875307
109.952545 72.552788 -6.875308
110.435516 69.552788 -5.875307
110.462494 70.552788 -5.875307
110.787079 69.552788 -5.268953
110.968597 69.552788 -4.875307
110.787079 70.552788 -5.305086
110.982941 70.552788 -4.875307
110.478973 71.552788 -5.875307
110.485443 72.552788 -5.875307
110.787079 71.552788 -5.306795
110.972870 71.552788 -4.875307
110.787079 72.552788 -5.254854
110.932770 72.552788 -4.875307
113.787079 60.429157 -3.875307
115.787079 57.090351 -3.875307
115.527069 57.552784 -3.875307
114.787079 58.552784 -4.177126
114.940460 58.552784 -3.875307
115.787079 57.552784 -3.149415
115.305389 58.552784 -2.875307
115.856232 57.552784 -2.875307
114.332916 59.552784 -3.875307
114.787079 58.821003 -3.875307
114.787079 59.435780 -2.875307
114.103973 60.552784 -2.875307
115.787079 58.003498 -1.875306
115.497955 58.552784 -1.875306
115.787079 58.019337 -0.875306
115.514374 58.552784 -0.875306
116.022186 57.552784 -1.875306
116.027008 57.552784 -0.875306
114.787079 59.552784 -2.588655
114.923309 59.552784 -1.875306
114.325470 60.552784 -1.875306
114.787079 59.771717 -1.875306
114.957367 59.552784 -0.875306
114.787079 59.835224 -0.875306
114.375092 60.552784 -0.875306
112.787079 61.552784 -4.475679
113.128510 61.552784 -3.875307
112.787079 62.159351 -3.875307
112.600983 62.552784 -3.875307
113.787079 61.108295 -2.875307
113.522369 61.552784 -2.875307
112.787079 62.552784 -3.418733
112.961090 62.552784 -2.875307
111.787079 63.552784 -4.618776
111.828522 64.552788 -3.875307
112.160065 63.552784 -3.875307
112.787079 62.916431 -2.875307
112.498199 63.552784 -2.875307
112.138885 64.552788 -2.875307
113.787079 61.462513 -1.875306
113.165680 62.552784 -1.875306
113.215668 62.552784 -0.875306
113.787079 61.549854 -0.875306
112.787079 63.292286 -1.875306
112.664825 63.552784 -1.875306
112.281708 64.552788 -1.875306
112.787079 63.347797 -0.875306
112.685883 63.552784 -0.875306
112.279510 64.552788 -0.875306
113.787079 59.843586 2.124695
113.787079 60.552784 1.436218
113.397247 60.552784 2.124695
113.787079 58.406940 3.124695
113.787079 59.552784 2.371246
113.165131 59.552784 3.124695
112.787079 60.218678 3.124695
112.787079 60.552784 2.924805
112.614655 60.552784 3.124695
115.362946 58.552784 0.124694
115.872223 57.552784 0.124694
115.787079 57.105946 1.124694
115.787079 57.552784 0.444030
115.557892 57.552784 1.124694
115.024445 58.552784 1.124694
114.787079 59.552784 0.212646
114.240814 60.552784 0.124694
114.787079 59.007710 1.124694
114.484894 59.552784 1.124694
113.923248 60.552784 1.124694
115.020233 57.552784 2.124695
114.787079 57.975208 2.124695
114.787079 58.552784 1.625579
114.492157 58.552784 2.124695
114.787079 57.552784 2.452453
114.255402 57.552784 3.124695
113.953888 59.552784 2.124695
113.667328 61.552784 0.124694
113.787079 61.349140 0.124694
113.087921 62.552784 0.124694
113.344574 61.552784 1.124694
113.787079 60.802570 1.124694
112.787079 62.552784 1.069610
112.787079 62.511433 1.124694
112.562042 63.552784 0.124694
112.787079 63.108448 0.124694
112.144745 64.552788 0.124694
112.264923 63.552784 1.124694
111.787079 64.552788 1.306274
111.787079 62.026936 3.124695
111.787079 62.552784 2.811310
111.531219 62.552784 3.124695
112.787079 61.587605 2.124695
112.264313 62.552784 2.124695
112.054840 61.552784 3.124695
111.787079 63.536427 2.124695
111.403412 64.552788 2.124695
111.093353 63.552784 3.124695
110.787079 64.408775 3.124695
111.589691 65.552788 -3.875307
111.430695 66.552788 -3.875307
111.787079 65.552788 -3.227540
111.787079 65.918602 -2.875307
111.681671 66.552788 -2.875307
111.866669 65.552788 -2.875307
111.345490 67.552788 -3.875307
111.319489 68.552788 -3.875307
111.573212 67.552788 -2.875307
111.526459 68.552788 -2.875307
111.787079 66.542503 -1.875306
111.992584 65.552788 -1.875306
111.976166 65.552788 -0.875306
111.787079 66.382744 -0.875306
111.660248 67.552788 -1.875306
111.600494 68.552788 -1.875306
111.623871 67.552788 -0.875306
111.556732 68.552788 -0.875306
111.328156 69.552788 -3.875307
111.335541 70.552788 -3.875307
111.520233 69.552788 -2.875307
111.515228 70.552788 -2.875307
111.307770 71.552788 -3.875307
111.240875 72.552788 -3.875307
111.478729 71.552788 -2.875307
111.401581 72.552788 -2.875307
111.580109 69.552788 -1.875306
111.562653 70.552788 -1.875306
111.523834 69.552788 -0.875306
111.493378 70.552788 -0.875306
111.519012 71.552788 -1.875306
111.437531 72.552788 -1.875306
111.440155 71.552788 -0.875306
111.361176 72.552788 -0.875306
111.606354 66.552788 0.124694
111.787079 65.552788 0.289489
111.787079 64.751945 1.124694
111.542572 65.552788 1.124694
111.315277 66.552788 1.124694
111.469574 67.552788 0.124694
111.398163 68.552788 0.124694
111.180939 67.552788 1.124694
111.113007 68.552788 1.124694
111.095795 65.552788 2.124695
110.787079 66.552788 2.305176
110.787079 65.552788 2.652802
110.491425 65.552788 3.124695
110.315948 66.552788 3.124695
110.787079 67.305290 2.124695
110.761322 67.552788 2.124695
110.787079 68.552788 1.934082
110.691498 68.552788 2.124695
110.204681 67.552788 3.124695
110.126617 68.552788 3.124695
111.358490 69.552788 0.124694
111.318146 70.552788 0.124694
111.068878 69.552788 1.124694
111.023102 70.552788 1.124694
111.258942 71.552788 0.124694
111.188202 72.552788 0.124694
110.970123 71.552788 1.124694
110.912079 72.552788 1.124694
110.640228 69.552788 2.124695
110.787079 69.552788 1.828643
110.602020 70.552788 2.124695
110.787079 70.552788 1.733368
110.076508 69.552788 3.124695
110.063812 70.552788 3.124695
110.576202 71.552788 2.124695
110.787079 71.552788 1.639282
110.545685 72.552788 2.124695
110.787079 72.552788 1.511627
110.073700 71.552788 3.124695
110.085907 72.552788 3.124695
101.554771 73.552788 -27.875313
101.787079 73.860161 -27.875313
101.667809 73.552788 -26.875313
101.764610 73.552788 -25.875313
101.787079 73.552788 -25.652687
101.787079 73.478203 -24.875313
101.787079 73.387596 -23.875311
101.787079 73.288780 -22.875311
101.787079 73.162529 -21.875311
101.787079 72.986839 -20.875311
101.787079 72.771080 -19.875311
102.278168 74.552788 -27.875313
102.441803 74.552788 -26.875313
102.787079 75.266777 -27.875313
103.002838 75.552788 -27.875313
103.787079 76.552788 -27.765572
102.787079 75.012138 -26.875313
103.194427 75.552788 -26.875313
103.787079 76.342308 -26.875313
103.968597 76.552788 -26.875313
102.581451 74.552788 -25.875313
102.715363 74.552788 -24.875313
102.787079 74.809441 -25.875313
103.370209 75.552788 -25.875313
103.787079 76.104576 -25.875313
103.543060 75.552788 -24.875313
103.787079 75.864616 -24.875313
104.170929 76.552788 -25.875313
104.387665 76.552788 -24.875313
104.613861 77.552788 -27.875313
104.787079 77.767052 -27.875313
105.325348 78.552788 -27.875313
104.787079 77.552788 -27.049477
104.787079 77.510155 -26.875313
105.590973 78.552788 -26.875313
105.787079 79.552788 -27.711525
105.787079 79.745079 -27.875313
105.787079 80.552788 -28.277260
105.787079 78.921440 -26.875313
104.787079 77.245171 -25.875313
105.081573 77.552788 -25.875313
105.787079 78.552788 -26.212074
105.787079 78.390160 -25.875313
104.787079 76.998375 -24.875313
105.323395 77.552788 -24.875313
105.787079 78.078148 -24.875313
105.916779 80.552788 -27.875313
106.017853 79.552788 -26.875313
106.225006 80.552788 -26.875313
106.088531 78.552788 -24.875313
106.314911 79.552788 -25.875313
106.528534 80.552788 -25.875313
106.545074 79.552788 -24.875313
106.787079 80.552788 -24.843969
101.947601 73.552788 -23.875311
102.787079 74.552788 -24.352606
102.787079 74.462334 -23.875311
102.066254 73.552788 -22.875311
102.787079 74.271446 -22.875311
103.043915 74.552788 -22.875311
103.737885 75.552788 -23.875311
103.787079 75.552788 -23.646551
103.787079 75.359459 -22.875311
104.633942 76.552788 -23.875311
103.972443 75.552788 -22.875311
104.787079 76.552788 -23.282202
104.787079 76.440575 -22.875311
102.232147 73.552788 -21.875311
102.787079 74.062737 -21.875311
103.269806 74.552788 -21.875311
102.461823 73.552788 -20.875311
102.787079 73.836754 -20.875311
103.528168 74.552788 -20.875311
103.787079 75.089958 -21.875311
103.787079 74.810539 -20.875311
104.235565 75.552788 -21.875311
104.787079 76.144890 -21.875311
105.133514 76.552788 -21.875311
104.514374 75.552788 -20.875311
104.787079 75.842369 -20.875311
105.393829 76.552788 -20.875311
104.787079 76.728783 -23.875311
105.519135 77.552788 -23.875311
105.787079 77.873253 -23.875311
105.708710 77.552788 -22.875311
105.787079 77.552788 -22.456396
105.787079 77.385582 -21.875311
105.787079 77.070793 -20.875311
106.228119 78.552788 -23.875311
106.380463 78.552788 -22.875311
106.705414 79.552788 -23.875311
106.787079 79.775658 -23.875311
106.988312 80.552788 -23.875311
106.787079 79.552788 -23.378454
106.787079 79.376152 -22.875311
107.188934 80.552788 -22.875311
105.906464 77.552788 -21.875311
106.549347 78.552788 -21.875311
106.119598 77.552788 -20.875311
106.738129 78.552788 -20.875311
106.787079 79.021965 -21.875311
107.030609 79.552788 -21.875311
107.381561 80.552788 -21.875311
107.220856 79.552788 -20.875311
107.585785 80.552788 -20.875311
105.787079 81.552788 -28.580605
106.022003 81.552788 -27.875313
106.081024 82.552788 -27.875313
106.336334 81.552788 -26.875313
106.414215 82.552788 -26.875313
106.137238 83.552788 -27.875313
106.199738 84.552788 -27.875313
106.511749 83.552788 -26.875313
106.606659 84.552788 -26.875313
106.636017 81.552788 -25.875313
106.787079 82.552788 -25.709328
106.787079 81.552788 -25.361122
106.914581 81.552788 -24.875313
107.045746 82.552788 -24.875313
106.787079 83.014549 -25.875313
106.787079 83.552788 -26.077675
106.862579 83.552788 -25.875313
106.787079 84.552788 -26.385994
106.989105 84.552788 -25.875313
107.204376 83.552788 -24.875313
107.356781 84.552788 -24.875313
106.243011 85.552788 -27.875313
106.273468 86.552788 -27.875313
106.667572 85.552788 -26.875313
106.706940 86.552788 -26.875313
106.278229 87.552788 -27.875313
106.250641 88.552795 -27.875313
106.787079 87.552788 -26.698463
106.702423 88.552795 -26.875313
106.787079 85.552788 -26.566628
107.076508 85.552788 -25.875313
106.787079 86.552788 -26.672585
107.128876 86.552788 -25.875313
107.465118 85.552788 -24.875313
107.527374 86.552788 -24.875313
107.143707 87.552788 -25.875313
106.787079 88.552795 -26.667213
107.137970 88.552795 -25.875313
107.552277 87.552788 -24.875313
107.557953 88.552795 -24.875313
107.178070 81.552788 -23.875311
107.346466 82.552788 -23.875311
107.420685 81.552788 -22.875311
107.618805 82.552788 -22.875311
107.527740 83.552788 -23.875311
107.697845 84.552788 -23.875311
107.787079 83.370354 -22.875311
107.787079 84.552788 -23.603033
108.023285 84.552788 -22.875311
107.646149 81.552788 -21.875311
107.787079 82.156151 -21.875311
107.787079 82.552788 -22.223242
107.787079 81.230278 -20.875311
107.787079 81.552788 -21.276037
107.883698 82.552788 -21.875311
107.883514 81.552788 -20.875311
108.151276 82.552788 -20.875311
108.118500 83.552788 -21.875311
108.315277 84.552788 -21.875311
108.392120 83.552788 -20.875311
108.589325 84.552788 -20.875311
107.787079 85.246056 -23.875311
107.823517 85.552788 -23.875311
107.787079 86.552788 -24.166815
107.901764 86.552788 -23.875311
108.167267 85.552788 -22.875311
108.261200 86.552788 -22.875311
107.787079 87.552788 -24.255011
107.787079 88.552795 -24.287542
107.941193 87.552788 -23.875311
107.958771 88.552795 -23.875311
108.315704 87.552788 -22.875311
108.344574 88.552795 -22.875311
108.468842 85.552788 -21.875311
108.579742 86.552788 -21.875311
108.787079 85.552788 -20.708563
108.787079 85.841148 -20.875311
108.787079 86.552788 -21.191015
108.872833 86.552788 -20.875311
108.653595 87.552788 -21.875311
108.696808 88.552795 -21.875311
108.787079 87.552788 -21.474554
108.965729 87.552788 -20.875311
108.787079 88.552795 -21.619726
109.023285 88.552795 -20.875311
102.787079 73.552788 -19.699865
103.787079 74.530205 -19.875311
102.787079 73.339745 -18.875311
103.029266 73.552788 -18.875311
103.787079 74.248833 -18.875311
104.093170 74.552788 -18.875311
104.787079 75.552788 -19.895208
104.787079 75.546410 -19.875311
105.655670 76.552788 -19.875311
104.787079 75.261070 -18.875311
105.067291 75.552788 -18.875311
105.787079 76.552788 -19.375830
105.787079 76.388084 -18.875311
102.787079 73.024651 -17.875311
103.379425 73.552788 -17.875311
103.787079 73.931786 -17.875311
103.787079 73.552788 -16.818943
104.402985 74.552788 -17.875311
104.787079 74.552788 -16.693027
104.787079 74.954704 -17.875311
105.351654 75.552788 -17.875311
105.787079 76.052574 -17.875311
105.657196 75.552788 -16.875309
106.158051 76.552788 -17.875311
106.439484 76.552788 -16.875309
105.787079 76.729424 -19.875311
106.361237 77.552788 -19.875311
106.787079 78.220238 -19.875311
106.787079 78.552788 -20.632544
106.968353 78.552788 -19.875311
106.618683 77.552788 -18.875311
106.787079 77.801384 -18.875311
107.220917 78.552788 -18.875311
107.447906 79.552788 -19.875311
107.787079 80.552788 -19.986425
107.787079 80.463615 -19.875311
107.688568 79.552788 -18.875311
107.787079 79.787010 -18.875311
108.069916 80.552788 -18.875311
106.787079 77.552788 -18.177343
106.787079 77.439568 -17.875311
107.460297 78.552788 -17.875311
106.787079 77.060173 -16.875309
107.116119 77.552788 -16.875309
107.692535 78.552788 -16.875309
107.787079 79.552788 -18.452765
107.787079 79.238274 -17.875311
107.787079 78.746086 -16.875309
107.925690 79.552788 -17.875311
108.320404 80.552788 -17.875311
108.159821 79.552788 -16.875309
108.565094 80.552788 -16.875309
103.787079 73.155754 -15.875310
104.164703 73.552788 -15.875310
104.787079 74.214867 -15.875310
105.104340 74.552788 -15.875310
104.681549 73.552788 -14.875309
105.559479 74.552788 -14.875309
105.787079 75.552788 -16.451389
105.787079 75.315971 -15.875310
105.787079 74.836479 -14.875309
104.787079 73.552788 -14.682560
104.787079 72.960594 -13.875309
105.290375 73.552788 -13.875309
105.787079 74.552788 -14.407383
105.787079 74.157219 -13.875309
105.787079 73.552788 -13.158970
105.787079 73.293694 -12.875309
105.993561 75.552788 -15.875310
106.787079 76.552788 -15.798619
106.392120 75.552788 -14.875309
106.787079 76.047478 -14.875309
107.126190 76.552788 -14.875309
106.090485 74.552788 -13.875309
105.980621 73.552788 -12.875309
106.787079 74.552788 -12.715061
106.787079 75.552788 -14.013035
106.787079 75.462730 -13.875309
107.542084 76.552788 -13.875309
107.364471 75.552788 -12.875309
107.787079 76.552788 -13.294163
107.787079 76.242149 -12.875309
107.952362 76.552788 -12.875309
107.401642 77.552788 -15.875310
107.787079 78.552788 -16.475132
107.787079 78.233147 -15.875310
107.787079 77.552788 -14.715122
107.950470 78.552788 -15.875310
108.251740 78.552788 -14.875309
108.413422 79.552788 -15.875310
108.787079 80.552788 -15.963078
108.787079 80.479912 -15.875310
108.699615 79.552788 -14.875309
108.787079 79.751335 -14.875309
109.085480 80.552788 -14.875309
107.787079 76.974083 -13.875309
108.094757 77.552788 -13.875309
108.579437 78.552788 -13.875309
108.458405 77.552788 -12.875309
108.787079 78.552788 -13.247532
108.787079 78.281761 -12.875309
108.897614 78.552788 -12.875309
108.787079 79.043663 -13.875309
108.787079 79.552788 -14.564182
109.001556 79.552788 -13.875309
109.367828 80.552788 -13.875309
109.293060 79.552788 -12.875309
109.630524 80.552788 -12.875309
108.135406 81.552788 -19.875311
108.410248 82.552788 -19.875311
108.390656 81.552788 -18.875311
108.660126 82.552788 -18.875311
108.653961 83.552788 -19.875311
108.787079 84.172264 -19.875311
108.787079 84.552788 -20.108953
108.857330 84.552788 -19.875311
108.787079 83.084831 -18.875311
108.787079 83.552788 -19.359716
108.905182 83.552788 -18.875311
109.123871 84.552788 -18.875311
108.643768 81.552788 -17.875311
108.787079 82.065849 -17.875311
108.787079 82.552788 -18.334234
108.910675 82.552788 -17.875311
108.787079 81.230919 -16.875309
108.787079 81.552788 -17.322424
108.893646 81.552788 -16.875309
109.169891 82.552788 -16.875309
109.157135 83.552788 -17.875311
109.371185 84.552788 -17.875311
109.405853 83.552788 -16.875309
109.608002 84.552788 -16.875309
109.033234 85.552788 -19.875311
109.167938 86.552788 -19.875311
109.307404 85.552788 -18.875311
109.441376 86.552788 -18.875311
109.261322 87.552788 -19.875311
109.323395 88.552795 -19.875311
109.530487 87.552788 -18.875311
109.593414 88.552795 -18.875311
109.551727 85.552788 -17.875311
109.688385 86.552788 -17.875311
109.787079 85.552788 -16.855656
109.787079 86.552788 -17.492285
109.787079 87.552788 -17.872259
109.787079 88.552795 -18.120520
109.147552 81.552788 -15.875310
109.422333 82.552788 -15.875310
109.406036 81.552788 -14.875309
109.671295 82.552788 -14.875309
109.651581 83.552788 -15.875310
109.787079 84.193779 -15.875310
109.787079 84.552788 -16.115726
109.787079 83.059441 -14.875309
109.787079 83.552788 -15.349980
109.662750 81.552788 -13.875309
109.787079 81.991264 -13.875309
109.787079 82.552788 -14.396854
109.787079 81.111565 -12.875309
109.787079 81.552788 -13.410892
109.936981 86.552788 -16.875309
109.859589 88.552795 -17.875311
110.052582 87.552788 -16.875309
110.126740 88.552795 -16.875309
109.854706 84.552788 -15.875310
109.906403 83.552788 -14.875309
110.110321 84.552788 -14.875309
109.931671 82.552788 -13.875309
109.922150 81.552788 -12.875309
110.195160 82.552788 -12.875309
110.165924 83.552788 -13.875309
110.360870 84.552788 -13.875309
110.430939 83.552788 -12.875309
110.613800 84.552788 -12.875309
110.036041 85.552788 -15.875310
110.185211 86.552788 -15.875310
110.284027 85.552788 -14.875309
110.426910 86.552788 -14.875309
110.300873 87.552788 -15.875310
110.375275 88.552795 -15.875310
110.537567 87.552788 -14.875309
110.608978 88.552795 -14.875309
110.524384 85.552788 -13.875309
110.655853 86.552788 -13.875309
110.787079 85.552788 -12.734745
110.787079 85.772209 -12.875309
110.787079 86.552788 -13.306950
110.873749 86.552788 -12.875309
110.787079 87.552788 -13.753330
110.787079 87.883965 -13.875309
110.826752 88.552795 -13.875309
110.968781 87.552788 -12.875309
111.033051 88.552795 -12.875309
105.787079 90.552795 -28.497475
105.787079 91.552795 -28.277748
105.856964 92.552795 -27.875313
106.191559 89.552795 -27.875313
106.106110 90.552795 -27.875313
106.659943 89.552795 -26.875313
106.586517 90.552795 -26.875313
105.999969 91.552795 -27.875313
106.487701 91.552795 -26.875313
106.347565 92.552795 -26.875313
106.787079 89.552795 -26.575020
107.105988 89.552795 -25.875313
106.787079 90.552795 -26.418617
107.041962 90.552795 -25.875313
107.535919 89.552795 -24.875313
107.481659 90.552795 -24.875313
106.787079 91.552795 -26.213478
106.949493 91.552795 -25.875313
106.816437 92.552795 -25.875313
107.397614 91.552795 -24.875313
107.275482 92.552795 -24.875313
105.787079 92.985077 -27.875313
105.688568 93.552795 -27.875313
105.509064 94.552795 -27.875313
105.787079 93.552795 -27.683754
105.787079 94.552795 -27.321114
105.319733 95.552795 -27.875313
104.787079 96.552795 -28.501839
105.130646 96.552795 -27.875313
105.805084 95.552795 -26.875313
105.632538 96.552795 -26.875313
105.787079 96.552795 -26.528542
106.177155 93.552795 -26.875313
105.994049 94.552795 -26.875313
106.787079 92.759125 -25.875313
106.655060 93.552795 -25.875313
106.473846 94.552795 -25.875313
106.787079 93.552795 -25.607491
107.120880 93.552795 -24.875313
106.787079 94.552795 -25.227943
106.944183 94.552795 -24.875313
106.285492 95.552795 -25.875313
106.105377 96.552795 -25.875313
106.787079 95.417877 -24.875313
106.579926 96.552795 -24.875313
107.787079 89.552795 -24.247503
107.787079 90.552795 -24.126898
107.945709 89.552795 -23.875311
107.896576 90.552795 -23.875311
108.341888 89.552795 -22.875311
108.303619 90.552795 -22.875311
107.813324 91.552795 -23.875311
107.787079 91.794678 -23.875311
107.704987 92.552795 -23.875311
107.787079 92.552795 -23.677679
108.228851 91.552795 -22.875311
108.122223 92.552795 -22.875311
108.705658 89.552795 -21.875311
108.682587 90.552795 -21.875311
108.787079 89.552795 -21.655066
109.046234 89.552795 -20.875311
108.787079 90.552795 -21.603949
109.038605 90.552795 -20.875311
108.621796 91.552795 -21.875311
108.519928 92.552795 -21.875311
108.787079 91.552795 -21.453711
108.989655 91.552795 -20.875311
108.787079 92.552795 -21.178747
108.891205 92.552795 -20.875311
107.571136 93.552795 -23.875311
107.407806 94.552795 -23.875311
107.787079 93.552795 -23.364843
107.834564 94.552795 -22.875311
107.992340 93.552795 -22.875311
107.229095 95.552795 -23.875311
106.787079 96.552795 -24.407873
107.043854 96.552795 -23.875311
107.787079 94.831146 -22.875311
107.667999 95.552795 -22.875311
107.496124 96.552795 -22.875311
108.390533 93.552795 -21.875311
108.241058 94.552795 -21.875311
108.787079 93.347900 -20.875311
108.787079 93.552795 -20.776220
108.608246 94.552795 -20.875311
107.787079 95.552795 -22.583380
107.787079 96.552795 -22.169714
108.079254 95.552795 -21.875311
107.910004 96.552795 -21.875311
108.451385 95.552795 -20.875311
108.289215 96.552795 -20.875311
104.787079 97.552795 -28.166847
104.947052 97.552795 -27.875313
104.787079 98.462555 -27.875313
105.458099 97.552795 -26.875313
105.279572 98.552795 -26.875313
104.610992 99.552795 -27.875313
104.452972 100.552795 -27.875313
104.787079 99.552795 -27.529640
105.103668 99.552795 -26.875313
104.787079 100.552795 -27.201424
104.940521 100.552795 -26.875313
105.787079 97.552795 -26.153938
105.787079 98.269409 -25.875313
105.787079 98.552795 -25.779335
105.574799 99.552795 -25.875313
105.418976 100.552795 -25.875313
105.787079 99.552795 -25.414528
105.863434 100.552795 -24.875313
105.923615 97.552795 -25.875313
106.389740 97.552795 -24.875313
106.201141 98.552795 -24.875313
106.024323 99.552795 -24.875313
104.320709 101.552795 -27.875313
104.221649 102.552795 -27.875313
104.804657 101.552795 -26.875313
104.703522 102.552795 -26.875313
103.787079 103.552795 -28.611916
104.153534 103.552795 -27.875313
104.627838 103.552795 -26.875313
105.282745 101.552795 -25.875313
104.787079 102.552795 -26.685707
105.173676 102.552795 -25.875313
105.787079 101.091705 -24.875313
105.787079 101.552795 -24.726568
105.623077 102.552795 -24.875313
104.787079 103.552795 -26.511971
105.088165 103.552795 -25.875313
105.538483 103.552795 -24.875313
106.854401 97.552795 -23.875311
106.787079 97.890198 -23.875311
106.670624 98.552795 -23.875311
107.316620 97.552795 -22.875311
106.787079 98.552795 -23.637487
107.135162 98.552795 -22.875311
106.488739 99.552795 -23.875311
106.321198 100.552795 -23.875311
106.787079 99.552795 -23.244909
106.949493 99.552795 -22.875311
106.787079 100.474487 -22.875311
107.787079 97.255432 -21.875311
107.787079 97.552795 -21.748755
107.567352 98.552795 -21.875311
107.787079 98.552795 -21.324347
108.122223 97.552795 -20.875311
107.953705 98.552795 -20.875311
107.392548 99.552795 -21.875311
107.219452 100.552795 -21.875311
107.787079 99.496582 -20.875311
107.614960 100.552795 -20.875311
105.787079 102.552795 -24.473730
105.787079 103.552795 -24.269079
106.176727 101.552795 -23.875311
106.059113 102.552795 -23.875311
106.626434 101.552795 -22.875311
106.496613 102.552795 -22.875311
105.965790 103.552795 -23.875311
106.392731 103.552795 -22.875311
106.787079 101.552795 -22.486273
107.058868 101.552795 -21.875311
106.787079 102.552795 -22.175726
106.921295 102.552795 -21.875311
107.460052 101.552795 -20.875311
107.325226 102.552795 -20.875311
106.810028 103.552795 -21.875311
106.787079 103.768250 -21.875311
107.212372 103.552795 -20.875311
