81.993805 60.774807 -30.100763
82.306793 61.522427 -30.100763
81.716522 60.522427 -29.100763
81.993805 61.241207 -29.100763
82.130829 61.522427 -29.100763
82.908783 62.522427 -30.100763
82.806732 62.522427 -29.100763
82.993805 62.748684 -29.100763
81.525360 60.522427 -28.100763
81.993805 61.563046 -28.100763
81.340118 60.522427 -27.100761
81.850250 61.522427 -27.100761
82.719818 62.522427 -28.100763
82.993805 62.824520 -28.100763
81.993805 61.740017 -27.100761
82.659149 62.522427 -27.100761
82.993805 62.866573 -27.100761
83.732330 63.522427 -30.100763
83.700226 63.522427 -29.100763
83.670013 63.522427 -28.100763
83.663666 63.522427 -27.100761
83.993805 63.848476 -30.100763
84.521637 64.522423 -30.100763
84.993805 65.138634 -30.100763
83.993805 63.862392 -29.100763
84.545319 64.522423 -29.100763
84.993805 65.070732 -29.100763
85.288422 65.522423 -30.100763
85.363983 65.522423 -29.100763
85.993805 66.522423 -30.611322
85.993805 66.442741 -30.100763
86.958466 67.522430 -30.100763
85.993805 66.277641 -29.100763
86.209564 66.522423 -29.100763
86.993805 67.522430 -29.853449
86.993805 67.409264 -29.100763
83.993805 63.869076 -28.100763
84.589020 64.522423 -28.100763
84.993805 64.979210 -28.100763
83.993805 63.850216 -27.100761
84.664703 64.522423 -27.100761
84.993805 64.862816 -27.100761
85.459259 65.522423 -28.100763
85.584747 65.522423 -27.100761
85.993805 66.130180 -28.100763
86.351288 66.522423 -28.100763
86.993805 67.244743 -28.100763
85.993805 65.973167 -27.100761
86.508881 66.522423 -27.100761
86.993805 67.059105 -27.100761
80.993805 60.123226 -26.100761
80.993805 60.522427 -24.931328
81.166595 60.522427 -26.100761
81.761322 61.522427 -26.100761
81.707550 61.522427 -25.100761
81.993805 61.832790 -26.100761
82.627716 62.522427 -26.100761
82.993805 62.879391 -26.100761
81.993805 61.870052 -25.100761
82.621552 62.522427 -25.100761
82.993805 62.874203 -25.100761
80.924103 60.522427 -24.100761
80.915863 60.522427 -23.100761
81.702789 61.522427 -24.100761
81.764557 61.522427 -23.100761
81.993805 61.852901 -24.100761
82.658295 62.522427 -24.100761
82.993805 62.833950 -24.100761
81.993805 61.767941 -23.100761
82.771210 62.522427 -23.100761
82.993805 62.722805 -23.100761
83.679291 63.522427 -26.100761
83.707489 63.522427 -25.100761
83.778900 63.522427 -24.100761
83.930389 63.522427 -23.100761
83.993805 63.817165 -26.100761
84.758942 64.522423 -26.100761
84.993805 64.743950 -26.100761
83.993805 63.776394 -25.100761
84.862885 64.522423 -25.100761
85.734039 65.522423 -26.100761
85.887238 65.522423 -25.100761
85.993805 65.800377 -26.100761
86.679779 66.522423 -26.100761
86.993805 66.866814 -26.100761
86.840912 66.522423 -25.100761
86.993805 66.688866 -25.100761
83.993805 63.702480 -24.100761
85.003387 64.522423 -24.100761
84.993805 64.364708 -23.100761
85.993805 65.522423 -24.444206
85.993805 65.456139 -24.100761
85.176422 64.522423 -23.100761
85.993805 65.273613 -23.100761
86.248322 65.522423 -23.100761
86.993805 66.522423 -24.179802
86.993805 66.505150 -24.100761
86.993805 66.303154 -23.100761
87.241913 67.522430 -28.100763
87.381378 67.522430 -27.100761
87.516449 67.522430 -26.100761
87.658539 67.522430 -25.100761
87.804596 67.522430 -24.100761
87.191803 66.522423 -23.100761
87.947662 67.522430 -23.100761
86.382721 68.522430 -38.100765
86.561188 69.522430 -38.100765
86.638336 68.522430 -37.100765
86.858002 69.522430 -37.100765
86.617950 70.522430 -38.100765
86.606903 71.522430 -38.100765
86.993805 70.522430 -36.958553
86.993805 71.522430 -37.051022
86.825226 68.522430 -36.100765
86.993805 69.049500 -36.100765
86.993805 69.522430 -36.524288
86.993805 68.522430 -35.115902
86.993805 68.517090 -35.100765
86.528534 72.522430 -38.100765
86.413422 73.522430 -38.100765
86.923553 72.522430 -37.100765
86.828094 73.522430 -37.100765
85.993805 74.522430 -38.700436
86.298920 74.522430 -38.100765
85.993805 75.522430 -38.464352
86.188751 75.522430 -38.100765
86.741852 74.522430 -37.100765
86.668610 75.522430 -37.100765
86.993805 72.522430 -36.893368
86.993805 73.522430 -36.632504
86.993805 74.522430 -36.439999
86.993805 75.522430 -36.317501
86.993805 68.180023 -34.100765
86.993805 67.958771 -33.100765
86.993805 67.832764 -32.100765
86.993805 67.715668 -31.100763
87.103485 69.522430 -36.100765
87.341888 69.522430 -35.100765
87.255646 70.522430 -36.100765
87.309052 71.522430 -36.100765
87.534821 70.522430 -35.100765
87.601471 71.522430 -35.100765
87.274078 72.522430 -36.100765
87.195953 73.522430 -36.100765
87.582184 72.522430 -35.100765
87.533051 73.522430 -35.100765
87.132111 74.522430 -36.100765
87.087860 75.522430 -36.100765
87.495270 74.522430 -35.100765
87.474152 75.522430 -35.100765
87.177948 68.522430 -34.100765
87.587189 69.522430 -34.100765
87.354156 68.522430 -33.100765
87.829437 69.522430 -33.100765
87.809601 70.522430 -34.100765
87.879730 71.522430 -34.100765
87.993805 70.089081 -33.100765
87.993805 70.522430 -33.449337
88.080475 70.522430 -33.100765
87.993805 71.522430 -33.709164
88.153412 71.522430 -33.100765
87.514618 68.522430 -32.100765
87.993805 69.522430 -32.398190
87.993805 69.353943 -32.100765
87.668182 68.522430 -31.100763
87.993805 68.985992 -31.100763
88.260590 69.522430 -31.100763
88.337677 70.522430 -32.100765
88.417328 71.522430 -32.100765
88.557526 70.522430 -31.100763
88.657196 71.522430 -31.100763
87.871063 72.522430 -34.100765
87.847748 73.522430 -34.100765
87.993805 72.522430 -33.693539
88.159088 72.522430 -33.100765
87.993805 73.522430 -33.648678
88.159454 73.522430 -33.100765
87.836456 74.522430 -34.100765
87.839630 75.522430 -34.100765
87.993805 74.522430 -33.650692
88.173126 74.522430 -33.100765
87.993805 75.522430 -33.691769
88.201813 75.522430 -33.100765
88.444000 72.522430 -32.100765
88.470490 73.522430 -32.100765
88.705658 72.522430 -31.100763
88.756500 73.522430 -31.100763
88.508881 74.522430 -32.100765
88.561371 75.522430 -32.100765
88.819000 74.522430 -31.100763
88.889191 75.522430 -31.100763
86.068634 76.522430 -38.100765
85.993805 77.081787 -38.100765
85.993805 77.522430 -38.006039
86.589569 76.522430 -37.100765
86.481842 77.522430 -37.100765
85.796295 78.522430 -38.100765
85.631073 79.522430 -38.100765
85.993805 78.522430 -37.752865
86.345306 78.522430 -37.100765
85.993805 79.522430 -37.464046
86.192780 79.522430 -37.100765
87.034515 76.522430 -36.100765
86.993805 77.018616 -36.100765
86.993805 77.522430 -36.010128
86.846039 78.522430 -36.100765
86.728302 79.522430 -36.100765
86.993805 78.522430 -35.798031
86.993805 79.522430 -35.571712
84.993805 80.522430 -38.893490
84.993805 81.522430 -38.607418
85.464874 80.522430 -38.100765
85.298370 81.522430 -38.100765
86.037506 80.522430 -37.100765
85.993805 80.774628 -37.100765
85.874664 81.522430 -37.100765
84.993805 82.522430 -38.316891
84.993805 83.257446 -38.100765
85.125214 82.522430 -38.100765
85.702423 82.522430 -37.100765
86.597565 80.522430 -36.100765
85.993805 81.522430 -36.877804
86.436798 81.522430 -36.100765
86.993805 80.522430 -35.322567
86.993805 81.217926 -35.100765
86.993805 81.522430 -35.007381
85.993805 82.522430 -36.561947
86.257172 82.522430 -36.100765
86.793915 82.522430 -35.100765
86.993805 82.522430 -34.677059
87.444916 76.522430 -35.100765
87.385040 77.522430 -35.100765
87.301971 78.522430 -35.100765
87.205414 79.522430 -35.100765
87.093597 80.522430 -35.100765
87.838165 76.522430 -34.100765
87.808624 77.522430 -34.100765
87.993805 76.522430 -33.716427
88.225372 76.522430 -33.100765
87.993805 77.522430 -33.675716
88.224579 77.522430 -33.100765
87.752106 78.522430 -34.100765
87.671478 79.522430 -34.100765
87.993805 78.522430 -33.574886
88.193695 78.522430 -33.100765
87.993805 79.522430 -33.410519
88.126617 79.522430 -33.100765
88.604584 76.522430 -32.100765
88.626373 77.522430 -32.100765
88.993805 76.522430 -30.946833
88.993805 77.522430 -31.055414
88.616180 78.522430 -32.100765
88.563934 79.522430 -32.100765
88.993805 78.522430 -31.072992
88.993805 79.522430 -30.983515
87.569855 80.522430 -34.100765
87.442719 81.522430 -34.100765
88.034027 80.522430 -33.100765
87.993805 80.872437 -33.100765
87.993805 81.522430 -32.932919
87.292694 82.522430 -34.100765
87.785370 82.522430 -33.100765
88.484772 80.522430 -32.100765
88.384857 81.522430 -32.100765
88.892059 80.522430 -31.100763
88.811432 81.522430 -31.100763
87.993805 82.522430 -32.651424
88.263397 82.522430 -32.100765
88.707611 82.522430 -31.100763
87.816498 68.522430 -30.100763
87.993805 68.758270 -30.100763
88.409760 69.522430 -30.100763
87.949677 68.522430 -29.100763
88.538422 69.522430 -29.100763
88.739044 70.522430 -30.100763
88.878754 71.522430 -30.100763
88.901215 70.522430 -29.100763
88.993805 70.926788 -29.100763
88.993805 71.522430 -29.548883
89.082855 71.522430 -29.100763
87.993805 68.522430 -28.694818
87.993805 68.441559 -28.100763
88.637360 69.522430 -28.100763
87.993805 68.336273 -27.100761
88.124603 68.522430 -27.100761
88.709930 69.522430 -27.100761
88.993805 70.522430 -28.406244
88.993805 70.407288 -28.100763
88.993805 70.158112 -27.100761
89.246918 71.522430 -28.100763
89.127594 70.522430 -27.100761
89.387726 71.522430 -27.100761
88.945526 72.522430 -30.100763
88.993805 73.193451 -30.100763
89.021271 73.522430 -30.100763
88.993805 72.522430 -29.894464
89.180084 72.522430 -29.100763
89.284821 73.522430 -29.100763
88.993805 74.522430 -30.489374
88.993805 75.522430 -30.754694
89.117096 74.522430 -30.100763
89.211578 75.522430 -30.100763
89.404144 74.522430 -29.100763
89.518341 75.522430 -29.100763
89.383636 72.522430 -28.100763
89.522430 73.522430 -28.100763
89.571014 72.522430 -27.100761
89.745087 73.522430 -27.100761
89.669708 74.522430 -28.100763
89.807709 75.522430 -28.100763
89.920685 74.522430 -27.100761
89.993805 74.940308 -27.100761
89.993805 75.522430 -27.446344
90.083649 75.522430 -27.100761
87.993805 68.198669 -26.100761
88.217438 68.522430 -26.100761
88.805084 69.522430 -26.100761
87.993805 68.014618 -25.100761
88.336151 68.522430 -25.100761
88.916473 69.522430 -25.100761
88.993805 69.924896 -26.100761
89.233551 70.522430 -26.100761
89.529938 71.522430 -26.100761
89.353851 70.522430 -25.100761
89.676666 71.522430 -25.100761
87.993805 67.815155 -24.100761
88.451813 68.522430 -24.100761
88.993805 69.522430 -24.366142
88.993805 69.462524 -24.100761
88.583649 68.522430 -23.100761
88.993805 69.218811 -23.100761
89.149933 69.522430 -23.100761
89.473053 70.522430 -24.100761
89.820221 71.522430 -24.100761
89.602386 70.522430 -23.100761
89.993805 71.522430 -22.923454
89.751617 72.522430 -26.100761
89.993805 73.522430 -25.901848
89.926666 72.522430 -25.100761
89.993805 72.804413 -25.100761
90.157196 73.522430 -25.100761
89.993805 73.738800 -26.100761
89.993805 74.522430 -26.771416
90.161285 74.522430 -26.100761
90.344818 75.522430 -26.100761
90.381256 74.522430 -25.100761
90.567230 75.522430 -25.100761
89.993805 72.147003 -24.100761
89.993805 72.522430 -24.688774
90.104156 72.522430 -24.100761
90.359833 73.522430 -24.100761
90.284149 72.522430 -23.100761
90.548615 73.522430 -23.100761
90.581757 74.522430 -24.100761
90.760895 75.522430 -24.100761
90.765472 74.522430 -23.100761
90.944183 75.522430 -23.100761
89.286346 76.522430 -30.100763
89.328278 77.522430 -30.100763
89.609406 76.522430 -29.100763
89.660126 77.522430 -29.100763
89.340607 78.522430 -30.100763
89.322052 79.522430 -30.100763
89.680878 78.522430 -29.100763
89.671967 79.522430 -29.100763
89.917084 76.522430 -28.100763
89.993805 77.522430 -28.054193
89.993805 76.522430 -27.860773
90.215057 76.522430 -27.100761
90.293976 77.522430 -27.100761
89.993805 77.980927 -28.100763
90.007538 78.522430 -28.100763
90.008820 79.522430 -28.100763
90.336578 78.522430 -27.100761
90.346832 79.522430 -27.100761
88.993805 80.522430 -30.821283
88.993805 81.522430 -30.616327
89.273224 80.522430 -30.100763
89.199615 81.522430 -30.100763
89.632782 80.522430 -29.100763
89.565216 81.522430 -29.100763
88.993805 82.522430 -30.363214
88.993805 83.305298 -30.100763
89.100800 82.522430 -30.100763
89.469574 82.522430 -29.100763
89.993805 80.175598 -28.100763
89.993805 80.522430 -28.061701
89.916351 81.522430 -28.100763
90.324432 80.522430 -27.100761
89.993805 81.522430 -27.892572
90.265900 81.522430 -27.100761
89.821747 82.522430 -28.100763
89.993805 82.522430 -27.630732
90.173859 82.522430 -27.100761
90.483185 76.522430 -26.100761
90.572418 77.522430 -26.100761
90.707001 76.522430 -25.100761
90.803131 77.522430 -25.100761
90.628143 78.522430 -26.100761
90.648529 79.522430 -26.100761
90.868622 78.522430 -25.100761
90.900116 79.522430 -25.100761
90.903046 76.522430 -24.100761
90.993805 77.328827 -24.100761
90.993805 75.848419 -23.100761
90.993805 76.522430 -23.662407
90.993805 78.522430 -24.517326
90.993805 79.522430 -24.685234
91.103363 76.522430 -23.100761
91.227509 77.522430 -23.100761
91.094635 78.522430 -24.100761
91.141449 79.522430 -24.100761
91.318207 78.522430 -23.100761
91.376007 79.522430 -23.100761
90.635468 80.522430 -26.100761
90.591034 81.522430 -26.100761
90.902191 80.522430 -25.100761
90.876495 81.522430 -25.100761
90.515778 82.522430 -26.100761
90.818939 82.522430 -25.100761
90.993805 80.522430 -24.722527
90.993805 81.522430 -24.651299
90.993805 82.522430 -24.462944
91.161469 80.522430 -24.100761
91.152313 81.522430 -24.100761
91.407562 80.522430 -23.100761
91.408234 81.522430 -23.100761
91.102814 82.522430 -24.100761
91.364777 82.522430 -23.100761
82.851776 20.522415 -22.100761
82.993805 21.522415 -21.911369
82.993805 20.522415 -21.714714
82.993805 22.522415 -21.999626
82.993805 23.522415 -22.028008
83.240570 20.522415 -21.100761
83.355682 21.522415 -21.100761
83.452301 22.522415 -21.100761
83.538239 23.522415 -21.100761
83.809113 20.522415 -20.100761
83.993805 21.522415 -20.007988
83.993805 20.522415 -19.878471
84.993805 20.522415 -19.194328
85.014191 21.522415 -19.100761
85.993805 19.981155 -19.100761
85.337799 20.522415 -19.100761
86.993805 20.024124 -19.100761
83.993805 22.163315 -20.100761
84.044098 22.522415 -20.100761
83.993805 23.522415 -20.378838
84.196564 23.522415 -20.100761
84.993805 22.454361 -19.100761
85.112885 23.522415 -19.100761
82.993805 24.522417 -21.984734
82.848175 25.522417 -22.100761
82.993805 25.522417 -21.898247
82.737579 26.522417 -22.100761
81.993805 27.522417 -22.816948
82.560638 27.522417 -22.100761
82.993805 26.522417 -21.775139
82.993805 27.522417 -21.593132
83.589569 24.522417 -21.100761
83.596100 25.522417 -21.100761
83.553986 26.522417 -21.100761
83.439545 27.522417 -21.100761
83.993805 24.522417 -20.534355
84.334625 24.522417 -20.100761
83.993805 25.522417 -20.605644
84.429291 25.522417 -20.100761
84.993805 24.522417 -19.358025
84.993805 25.522417 -19.495171
85.260956 24.522417 -19.100761
85.399872 25.522417 -19.100761
83.993805 26.522417 -20.610100
84.484161 26.522417 -20.100761
83.993805 27.522417 -20.542107
84.465607 27.522417 -20.100761
84.993805 26.522417 -19.604729
84.993805 27.522417 -19.640862
85.546478 26.522417 -19.100761
85.643402 27.522417 -19.100761
85.993805 20.522415 -18.984304
86.993805 20.522415 -18.950735
85.993805 21.522415 -18.768728
86.993805 21.522415 -18.638113
85.993805 22.522415 -18.596670
86.993805 22.522415 -18.334951
85.993805 23.522415 -18.513601
86.993805 23.473892 -18.100760
85.993805 24.522417 -18.507193
86.648529 24.522417 -18.100760
85.993805 25.522417 -18.581900
86.653168 25.522417 -18.100760
86.993805 24.522417 -17.943350
86.993805 25.522417 -17.908987
85.993805 26.522417 -18.714529
86.792328 26.522417 -18.100760
85.993805 27.522417 -18.815725
86.993805 27.522417 -18.057730
86.993805 26.522417 -17.972769
87.993805 20.177902 -19.100761
88.993805 20.244492 -19.100761
89.993805 20.266983 -19.100761
90.993805 20.188431 -19.100761
91.993805 19.920059 -19.100761
87.993805 20.522415 -18.973562
88.993805 20.522415 -18.987417
87.993805 21.522415 -18.593252
88.993805 21.522415 -18.567862
89.993805 20.522415 -18.991201
90.993805 20.522415 -18.958792
89.993805 21.522415 -18.533743
90.993805 21.522415 -18.481436
87.993805 22.522415 -18.192495
89.162994 22.522415 -18.100760
87.993805 22.752060 -18.100760
87.993805 23.522415 -17.849722
88.993805 23.522415 -17.698172
89.993805 22.392441 -18.100760
90.993805 22.244614 -18.100760
90.993805 22.522415 -17.951651
89.993805 23.522415 -17.572378
90.993805 23.522415 -17.449270
91.993805 20.522415 -18.861807
92.993805 20.522415 -18.701162
91.993805 21.522415 -18.385305
92.993805 21.522415 -18.235586
93.993805 20.522415 -18.484854
94.993805 20.522415 -18.212454
93.718719 21.522415 -18.100760
93.993805 21.384476 -18.100760
94.993805 20.794937 -18.100760
94.993805 21.522415 -17.784964
91.993805 22.070084 -18.100760
92.993805 21.796249 -18.100760
91.993805 22.522415 -17.853140
92.993805 22.522415 -17.711905
91.993805 23.522415 -17.322256
92.993805 23.522415 -17.179312
93.993805 22.522415 -17.523245
94.993805 22.522415 -17.293447
93.486115 23.522415 -17.100760
93.993805 23.334518 -17.100760
94.993805 22.905411 -17.100760
93.993805 23.522415 -17.010183
94.993805 23.522415 -16.810232
87.993805 24.522417 -17.587210
88.993805 24.522417 -17.353567
87.993805 25.522417 -17.449697
89.089142 25.522417 -17.100760
89.993805 24.522417 -17.164114
90.342010 24.522417 -17.100760
90.993805 24.276812 -17.100760
87.993805 26.522417 -17.416189
88.719513 26.522417 -17.100760
87.993805 27.522417 -17.437674
88.638824 27.522417 -17.100760
90.993805 24.522417 -16.994986
89.993805 25.522417 -16.874807
90.993805 25.522417 -16.654593
88.993805 26.522417 -17.004263
88.993805 27.522417 -16.945242
89.993805 26.522417 -16.677298
90.993805 26.522417 -16.400991
89.993805 27.522417 -16.545218
90.993805 27.522417 -16.214529
91.993805 23.973558 -17.100760
91.993805 24.522417 -16.842398
92.993805 24.522417 -16.694754
91.993805 25.522417 -16.465078
92.993805 25.522417 -16.294058
93.993805 24.522417 -16.530508
94.993805 24.522417 -16.338491
94.089325 25.522417 -16.100760
94.993805 25.066973 -16.100760
94.993805 25.522417 -15.930655
91.993805 26.522417 -16.170462
92.993805 26.109972 -16.100760
92.307953 26.522417 -16.100760
91.993805 26.775896 -16.100760
91.423920 27.522417 -16.100760
92.993805 26.522417 -15.969656
91.993805 27.522417 -15.943716
92.993805 27.522417 -15.714346
93.993805 26.522417 -15.779043
94.993805 26.522417 -15.585440
93.993805 27.522417 -15.510733
94.993805 27.522417 -15.312551
81.993805 28.522417 -22.525383
82.352264 28.522417 -22.100761
82.101288 29.522417 -22.100761
82.993805 28.522417 -21.400566
83.077240 29.522417 -21.100761
80.993805 31.522419 -22.732536
81.993805 29.937029 -22.100761
81.831451 30.522417 -22.100761
81.544037 31.522419 -22.100761
81.993805 30.522417 -21.925591
82.993805 29.872149 -21.100761
82.825897 30.522417 -21.100761
81.993805 31.522419 -21.629631
82.547028 31.522419 -21.100761
82.993805 30.522417 -20.951347
82.993805 31.522419 -20.719292
83.286591 28.522417 -21.100761
83.993805 28.522417 -20.443840
84.393280 28.522417 -20.100761
83.993805 29.522417 -20.306633
84.250336 29.522417 -20.100761
84.993805 28.522417 -19.623405
84.993805 29.522417 -19.547478
85.680389 28.522417 -19.100761
85.634491 29.522417 -19.100761
84.038544 30.522417 -20.100761
83.791901 31.522419 -20.100761
84.993805 30.522417 -19.419548
83.993805 31.522419 -19.952080
84.993805 31.522419 -19.270134
85.485260 30.522417 -19.100761
85.269989 31.522419 -19.100761
80.993805 32.522419 -22.349358
80.993805 33.184711 -22.100761
80.993805 33.522419 -21.985893
81.219635 32.522419 -22.100761
81.993805 32.522419 -21.320488
82.231842 32.522419 -21.100761
81.993805 33.255665 -21.100761
81.993805 33.522419 -21.028252
79.993805 34.522419 -22.671196
80.526031 34.522419 -22.100761
80.094208 35.522419 -22.100761
80.993805 34.522419 -21.633476
80.993805 35.522419 -21.246513
81.565765 34.522419 -21.100761
81.158051 35.522419 -21.100761
82.993805 32.522419 -20.467461
83.157013 33.522419 -20.100761
81.993805 34.522419 -20.734245
82.993805 34.003925 -20.100761
82.795929 34.522419 -20.100761
81.993805 35.522419 -20.403008
82.376068 35.522419 -20.100761
82.993805 34.522419 -19.961235
82.993805 35.522419 -19.667046
83.486176 32.522419 -20.100761
83.993805 32.522419 -19.737358
84.993805 32.435993 -19.100761
83.993805 33.522419 -19.513237
84.624847 33.522419 -19.100761
83.993805 34.522419 -19.278496
84.266693 34.522419 -19.100761
83.993805 35.178852 -19.100761
83.993805 35.522419 -19.015554
85.993805 28.522417 -18.863150
86.993805 28.196093 -18.100760
87.023956 28.522417 -18.100760
85.993805 29.522417 -18.849905
87.073273 29.522417 -18.100760
85.993805 30.522417 -18.768728
87.009064 30.522417 -18.100760
85.993805 31.522419 -18.646475
86.993805 31.522419 -18.011282
84.993805 33.522419 -18.885977
85.993805 32.522419 -18.470449
86.571686 32.522419 -18.100760
85.993805 33.522419 -18.262136
86.242706 33.522419 -18.100760
86.993805 32.522419 -17.854605
86.993805 33.522419 -17.655874
84.993805 34.522419 -18.666983
84.993805 35.522419 -18.409658
85.993805 34.282398 -18.100760
85.993805 34.522419 -18.045095
85.509247 35.522419 -18.100760
86.993805 34.522419 -17.443167
85.993805 35.522419 -17.803823
86.993805 35.522419 -17.209280
87.993805 28.522417 -17.474173
88.642242 28.522417 -17.100760
87.993805 29.522417 -17.501272
88.650604 29.522417 -17.100760
87.993805 30.522417 -17.474112
88.597198 30.522417 -17.100760
87.993805 31.522419 -17.388174
88.464386 31.522419 -17.100760
88.993805 28.522417 -16.925344
88.993805 29.522417 -16.912832
89.993805 28.522417 -16.464834
90.993805 28.409472 -16.100760
89.993805 29.522417 -16.394644
90.635712 29.522417 -16.100760
90.993805 29.522417 -15.969046
88.993805 30.522417 -16.872549
88.993805 31.522419 -16.792166
89.993805 30.522417 -16.314260
90.400726 30.522417 -16.100760
89.993805 31.522419 -16.217398
90.197968 31.522419 -16.100760
90.993805 30.522417 -15.842947
90.993805 31.522419 -15.709768
91.993805 28.522417 -15.775320
92.993805 28.522417 -15.522024
91.993805 29.522417 -15.623281
92.993805 29.522417 -15.348989
93.993805 28.522417 -15.301321
94.911469 28.522417 -15.100760
94.993805 28.456743 -15.100760
94.010590 29.522417 -15.100760
91.993805 30.522417 -15.461721
92.993805 30.522417 -15.161001
91.993805 31.522419 -15.286917
92.993805 30.793962 -15.100760
92.500336 31.522419 -15.100760
93.223175 30.522417 -15.100760
87.993805 32.522419 -17.246939
88.237457 32.522419 -17.100760
87.993805 33.315052 -17.100760
87.993805 33.522419 -17.061270
87.586700 34.522419 -17.100760
87.186981 35.522419 -17.100760
88.993805 32.522419 -16.657461
88.993805 33.522419 -16.472158
89.993805 32.368824 -16.100760
89.629242 33.522419 -16.100760
90.993805 32.522419 -15.538443
89.993805 33.522419 -15.882254
90.993805 33.522419 -15.333426
87.993805 34.522419 -16.861746
88.993805 34.522419 -16.266348
87.993805 35.522419 -16.632315
88.993805 35.228809 -16.100760
88.993805 35.522419 -16.036978
89.279388 34.522419 -16.100760
89.993805 34.522419 -15.670828
91.027557 34.522419 -15.100760
89.993805 35.522419 -15.439688
90.569672 35.522419 -15.100760
91.993805 32.443439 -15.100760
91.491852 33.522419 -15.100760
94.993805 29.522417 -14.870169
92.993805 31.522419 -14.950918
93.993805 30.522417 -14.893850
94.993805 30.522417 -14.629385
93.993805 31.522419 -14.651114
94.993805 31.522419 -14.346548
90.993805 35.522419 -14.882437
92.993805 32.522419 -14.711599
91.993805 33.522419 -14.865164
92.993805 33.522419 -14.441031
93.993805 32.522419 -14.363943
94.742645 32.522419 -14.100760
94.993805 32.309437 -14.100760
93.993805 33.335651 -14.100760
94.993805 32.522419 -14.024221
94.993805 33.522419 -13.669546
91.993805 34.522419 -14.623648
93.108246 34.522419 -14.100760
91.993805 35.522419 -14.340139
92.444000 35.522419 -14.100760
92.993805 35.522419 -13.843435
93.993805 34.522419 -13.716787
94.993805 34.522419 -13.299856
93.993805 35.522419 -13.371695
94.993805 35.033497 -13.100760
94.576508 35.522419 -13.100760
94.993805 35.522419 -12.919179
95.993813 19.794357 -18.100760
95.383339 20.522415 -18.100760
95.993813 20.522415 -17.883841
96.993813 20.522415 -17.494314
95.993813 21.522415 -17.488699
96.993813 21.522415 -17.168631
97.993813 20.309952 -17.100760
97.993813 20.522415 -17.054190
97.189064 21.522415 -17.100760
95.781227 22.522415 -17.100760
95.993813 22.396347 -17.100760
98.993813 20.522415 -16.529898
97.993813 21.522415 -16.781485
98.993813 21.522415 -16.294363
96.993813 22.522415 -16.770803
95.993813 23.522415 -16.584951
96.993813 23.522415 -16.331106
97.993813 22.522415 -16.420034
98.993813 22.199600 -16.100760
98.728859 22.522415 -16.100760
97.780434 23.522415 -16.100760
97.993813 23.320847 -16.100760
98.993813 22.522415 -15.988455
97.993813 23.522415 -16.024405
98.993813 23.522415 -15.641958
99.748817 20.522415 -16.100760
99.382912 21.522415 -16.100760
99.993813 20.522415 -15.945181
100.993813 20.522415 -15.331411
99.993813 21.522415 -15.755178
100.993813 21.522415 -15.204519
101.393898 20.522415 -15.100760
101.199989 21.522415 -15.100760
99.993813 22.522415 -15.505789
100.993813 22.157333 -15.100760
100.993813 22.522415 -15.022390
99.993813 23.522415 -15.220266
100.257118 23.522415 -15.100760
96.111549 24.522417 -16.100760
96.993813 24.071245 -16.100760
96.993813 24.522417 -15.896048
95.993813 25.522417 -15.726309
96.993813 25.522417 -15.504812
97.993813 24.522417 -15.615957
98.993813 24.522417 -15.286917
97.993813 25.522417 -15.247183
98.993813 25.038988 -15.100760
98.468788 25.522417 -15.100760
95.993813 26.522417 -15.384268
96.993813 26.522417 -15.170401
95.993813 27.517534 -15.100760
96.993813 26.727770 -15.100760
97.993813 25.971819 -15.100760
97.302406 26.522417 -15.100760
99.993813 23.941362 -15.100760
99.531898 24.522417 -15.100760
101.993813 20.522415 -14.722036
102.993813 20.522415 -14.071707
101.993813 21.522415 -14.663931
102.993813 21.522415 -14.080618
100.993813 23.522415 -14.780813
101.993813 22.522415 -14.518667
102.754494 22.522415 -14.100760
101.993813 23.522415 -14.297354
102.368935 23.522415 -14.100760
102.993813 22.522415 -13.976980
102.993813 23.522415 -13.785391
98.993813 25.522417 -14.944632
96.993813 27.522417 -14.874929
97.993813 26.522417 -14.917227
98.993813 26.522417 -14.612967
97.993813 27.522417 -14.605337
98.993813 27.522417 -14.282339
99.993813 24.522417 -14.914480
100.993813 24.522417 -14.490469
99.993813 25.522417 -14.588308
101.168434 25.522417 -14.100760
101.993813 24.278765 -14.100760
101.993813 24.522417 -14.028616
102.993813 24.522417 -13.522757
101.993813 25.522417 -13.727774
102.993813 25.522417 -13.220510
99.993813 26.522417 -14.246267
100.993813 25.754961 -14.100760
100.350075 26.522417 -14.100760
99.993813 26.931841 -14.100760
99.525063 27.522417 -14.100760
100.993813 26.522417 -13.844290
99.993813 27.522417 -13.915030
100.993813 27.522417 -13.493155
101.993813 26.522417 -13.386465
102.993813 25.882860 -13.100760
102.551064 26.522417 -13.100760
101.993813 27.278154 -13.100760
101.993813 27.522417 -13.009328
102.993813 26.522417 -12.860036
102.993813 27.522417 -12.427968
103.993813 20.522415 -13.427359
104.492043 20.522415 -13.100760
103.993813 21.522415 -13.488638
104.619057 21.522415 -13.100760
103.993813 22.522415 -13.404776
104.492226 22.522415 -13.100760
103.993813 23.522415 -13.222097
104.194435 23.522415 -13.100760
104.993813 20.522415 -12.763234
104.993813 21.522415 -12.857961
105.993813 20.522415 -12.017751
105.993813 21.103409 -12.100759
106.018532 21.522415 -12.100759
106.993813 20.016830 -11.100759
107.147560 20.522415 -11.100759
106.993813 21.522415 -11.309011
104.993813 22.522415 -12.776540
104.993813 23.522415 -12.577687
105.993813 22.063126 -12.100759
105.993813 22.522415 -12.040212
105.647133 23.522415 -12.100759
107.122108 22.522415 -11.100759
105.993813 23.522415 -11.823781
106.993813 23.030502 -11.100759
106.993813 23.522415 -10.970693
107.244484 21.522415 -11.100759
103.993813 24.034807 -13.100760
103.768837 24.522417 -13.100760
103.221840 25.522417 -13.100760
103.993813 24.522417 -12.966176
104.993813 24.522417 -12.298635
103.993813 25.522417 -12.640370
104.993813 25.102282 -12.100759
104.780678 25.522417 -12.100759
104.993813 25.522417 -11.947865
105.265785 24.522417 -12.100759
105.993813 24.522417 -11.516957
106.483742 24.522417 -11.100759
106.034523 25.522417 -11.100759
103.993813 26.522417 -12.234181
104.181923 26.522417 -12.100759
103.993813 26.802721 -12.100759
103.515114 27.522417 -12.100759
104.993813 26.522417 -11.502919
103.993813 27.522417 -11.759206
104.993813 27.291857 -11.100759
104.993813 27.522417 -10.975087
105.496437 26.522417 -11.100759
107.993813 20.522415 -10.357045
108.265907 20.522415 -10.100759
107.993813 21.522415 -10.404775
108.302406 21.522415 -10.100759
108.993813 20.522415 -9.335805
108.993813 21.522415 -9.335561
109.185646 20.522415 -9.100758
109.177773 21.522415 -9.100758
107.993813 22.522415 -10.275197
108.167030 22.522415 -10.100759
107.993813 23.206619 -10.100759
107.993813 23.522415 -10.005361
109.026222 22.522415 -9.100758
108.769142 23.522415 -9.100758
109.993813 20.522415 -7.958973
109.860939 21.522415 -8.100758
110.452065 20.522415 -7.100758
109.993813 21.522415 -7.884022
110.396278 21.522415 -7.100758
108.993813 23.522415 -8.790150
109.699379 22.522415 -8.100758
109.444679 23.522415 -8.100758
109.993813 22.522415 -7.591480
110.234779 22.522415 -7.100758
109.993813 23.522385 -7.100758
106.993813 24.522417 -10.637258
107.093544 25.522417 -10.100759
105.993813 26.522417 -10.643056
106.993813 25.732012 -10.100759
106.557533 26.522417 -10.100759
105.993813 27.425768 -10.100759
106.993813 26.522417 -9.660207
106.993813 27.328051 -9.100758
106.993813 27.522417 -8.959095
107.540260 24.522417 -10.100759
107.993813 24.522417 -9.609365
108.413918 24.522417 -9.100758
107.993813 25.496416 -9.100758
107.479530 26.522417 -9.100758
108.993813 24.522417 -8.281605
108.993813 24.813951 -8.100758
108.698891 25.522417 -8.100758
108.993813 25.522417 -7.615406
109.108315 24.522417 -8.100758
109.670815 24.522417 -7.100758
109.261086 25.522417 -7.100758
107.993813 26.522417 -8.411427
108.207924 26.522417 -8.100758
107.993813 26.909044 -8.100758
107.652138 27.522417 -8.100758
108.993813 26.099474 -7.100758
108.780190 26.522417 -7.100758
107.993813 27.522417 -7.554859
108.225319 27.522417 -7.100758
95.993813 28.522417 -14.855703
96.993813 28.522417 -14.593191
95.993813 29.522417 -14.606192
96.993813 29.522417 -14.300955
97.993813 28.522417 -14.285269
98.993813 28.096239 -14.100760
98.533302 28.522417 -14.100760
97.993813 29.087694 -14.100760
97.621681 29.522417 -14.100760
98.993813 28.522417 -13.950857
97.993813 29.522417 -13.968985
98.993813 29.522417 -13.600943
95.993813 30.522417 -14.324026
96.993813 30.186480 -14.100760
96.648293 30.522417 -14.100760
95.993813 31.227526 -14.100760
95.758705 31.522419 -14.100760
96.993813 30.522417 -13.988516
95.993813 31.522419 -14.013723
96.993813 31.522419 -13.646475
97.993813 30.522417 -13.620901
98.993813 30.522417 -13.212820
97.993813 31.522419 -13.240286
98.993813 30.781084 -13.100760
98.305824 31.522419 -13.100760
98.993813 31.522419 -12.773793
99.993813 28.522417 -13.561697
101.023354 28.522417 -13.100760
100.163551 29.522417 -13.100760
99.993813 29.718035 -13.100760
99.258339 30.522417 -13.100760
100.993813 29.522417 -12.672536
101.993813 28.522417 -12.573964
102.993813 28.223619 -12.100759
102.736977 28.522417 -12.100759
101.993813 29.441149 -12.100759
102.993813 28.522417 -11.934682
102.993813 29.522417 -11.356252
99.993813 30.522417 -12.736440
101.093178 30.522417 -12.100759
99.993813 31.522419 -12.219838
100.189064 31.522419 -12.100759
100.993813 31.522419 -11.602223
101.993813 30.522417 -11.492726
102.993813 29.960375 -11.100759
102.528358 30.522417 -11.100759
101.993813 31.181047 -11.100759
101.731911 31.522419 -11.100759
95.993813 32.522419 -13.664480
96.993813 32.522419 -13.273489
95.993813 33.522419 -13.282034
96.993813 32.948933 -13.100760
96.433693 33.522419 -13.100760
97.993813 31.886799 -13.100760
97.407143 32.522419 -13.100760
95.993813 33.976948 -13.100760
95.487648 34.522419 -13.100760
96.993813 33.522419 -12.856923
97.993813 32.522419 -12.828115
98.993813 32.522419 -12.290456
97.993813 33.522419 -12.347890
98.993813 32.885548 -12.100759
98.427528 33.522419 -12.100759
98.993813 33.522419 -11.775258
95.993813 34.522419 -12.875600
96.993813 34.522419 -12.389211
95.993813 35.522419 -12.441152
96.993813 35.118855 -12.100759
96.646889 35.522419 -12.100759
96.993813 35.522419 -11.923390
97.993813 34.033955 -12.100759
97.551674 34.522419 -12.100759
97.993813 34.522419 -11.844838
98.993813 34.522419 -11.247304
97.993813 35.522419 -11.353139
98.993813 34.794514 -11.100759
98.411415 35.522419 -11.100759
99.993813 31.764484 -12.100759
99.338051 32.522419 -12.100759
99.993813 32.522419 -11.691274
100.993813 32.413136 -11.100759
100.075111 33.522419 -11.100759
99.248451 34.522419 -11.100759
102.993813 30.522417 -10.741994
101.993813 31.522419 -10.899404
102.993813 31.495623 -10.100759
98.993813 35.522419 -10.744740
100.993813 33.522419 -10.451222
101.993813 32.522419 -10.250844
102.169899 32.522419 -10.100759
101.993813 32.744892 -10.100759
101.423561 33.522419 -10.100759
102.993813 32.522419 -9.345632
101.993813 33.522419 -9.588002
102.993813 32.821339 -9.100758
102.487099 33.522419 -9.100758
99.993813 34.522419 -10.611623
100.993813 34.112537 -10.100759
100.674782 34.522419 -10.100759
99.993813 35.427052 -10.100759
100.993813 34.522419 -9.843007
101.095192 35.522419 -9.100758
101.993813 34.222126 -9.100758
101.782143 34.522419 -9.100758
102.993813 33.522419 -8.515064
101.993813 34.522419 -8.869862
102.993813 33.988331 -8.100758
102.631630 34.522419 -8.100758
101.993813 35.501972 -8.100758
102.993813 34.522419 -7.563038
102.634499 35.522419 -7.100758
102.993813 34.897602 -7.100758
104.115700 28.522417 -11.100759
103.344521 29.522417 -11.100759
104.993813 28.522417 -10.340444
103.993813 29.522417 -10.560109
104.993813 28.870409 -10.100759
104.509621 29.522417 -10.100759
104.993813 29.522417 -9.639089
105.249245 28.522417 -10.100759
105.993813 28.522417 -9.329885
106.198952 28.522417 -9.100758
105.993813 28.814684 -9.100758
105.498390 29.522417 -9.100758
103.993813 30.215624 -10.100759
103.758461 30.522417 -10.100759
103.993813 30.522417 -9.880605
104.993813 30.220690 -9.100758
104.767738 30.522417 -9.100758
104.002357 31.522419 -9.100758
107.005959 28.522417 -8.100758
105.993813 29.522417 -8.506275
106.308144 29.522417 -8.100758
106.993813 29.439440 -7.100758
104.993813 30.522417 -8.843861
104.993813 31.286394 -8.100758
104.819069 31.522419 -8.100758
104.993813 31.522419 -7.848133
105.993813 29.962420 -8.100758
105.578773 30.522417 -8.100758
105.993813 30.522417 -7.462391
106.189613 30.522417 -7.100758
105.421852 31.522419 -7.100758
105.993813 30.770311 -7.100758
107.612892 28.522417 -7.100758
107.993813 27.929338 -7.100758
103.228737 32.522419 -9.100758
103.993813 32.522419 -8.174000
104.048805 32.522419 -8.100758
103.311012 33.522419 -8.100758
104.657936 32.522419 -7.100758
104.993813 32.087940 -7.100758
103.993813 33.409504 -7.100758
103.241493 34.522419 -7.100758
79.993805 35.755085 -22.100761
79.611115 36.522419 -22.100761
79.993805 36.522419 -21.724358
80.993805 35.900440 -21.100761
80.682220 36.522419 -21.100761
80.110504 37.522419 -21.100761
79.993805 37.717487 -21.100761
79.489716 38.522419 -21.100761
80.993805 36.522419 -20.845329
80.993805 37.522419 -20.400078
81.993805 36.409901 -20.100761
81.403534 37.522419 -20.100761
82.993805 36.522419 -19.359856
81.993805 37.522419 -19.678764
82.993805 37.294971 -19.100761
82.993805 37.522419 -19.027517
79.993805 38.522419 -20.666496
80.993805 38.169147 -20.100761
80.738495 38.522419 -20.100761
79.993805 39.520405 -20.100761
80.993805 38.522419 -19.929314
80.993805 39.522419 -19.433708
81.993805 38.522419 -19.259636
82.234406 38.522419 -19.100761
81.993805 38.878284 -19.100761
81.544708 39.522419 -19.100761
83.413971 36.522419 -19.100761
79.265045 40.522419 -20.100761
79.993805 40.522419 -19.535820
80.993805 40.196857 -19.100761
80.675934 40.522419 -19.100761
79.993805 41.304401 -19.100761
79.993805 41.522419 -18.996756
82.993805 38.522419 -18.651297
81.993805 39.522419 -18.831228
82.993805 39.522419 -18.236685
83.993805 36.522419 -18.742910
85.053680 36.522419 -18.100760
83.993805 37.522419 -18.422781
84.522552 37.522419 -18.100760
84.993805 37.522419 -17.836355
85.993805 36.522419 -17.542410
86.993805 35.978535 -17.100760
86.740936 36.522419 -17.100760
85.993805 37.522419 -17.253714
86.252838 37.522419 -17.100760
83.993805 38.408283 -18.100760
83.241180 39.522419 -18.100760
84.993805 38.522419 -17.485952
83.993805 39.522419 -17.670828
85.026520 39.522419 -17.100760
85.993805 38.000080 -17.100760
85.683685 38.522419 -17.100760
86.993805 36.522419 -16.962454
86.993805 37.522419 -16.681936
85.993805 38.522419 -16.927237
86.993805 38.522419 -16.352957
85.993805 39.522419 -16.574453
86.993805 39.249958 -16.100760
86.993805 39.522419 -16.014212
80.993805 40.522419 -18.934866
80.993805 41.522419 -18.444448
81.993805 40.522419 -18.365957
82.993805 39.860645 -18.100760
82.447052 40.522419 -18.100760
81.993805 41.074055 -18.100760
81.634491 41.522419 -18.100760
82.993805 40.522419 -17.812551
81.993805 41.522419 -17.903433
82.993805 41.522419 -17.381033
79.993805 42.522419 -18.479361
80.683746 42.522419 -18.100760
80.993805 42.226978 -18.100760
79.993805 43.270435 -18.100760
79.993805 43.522423 -17.997610
80.993805 42.522419 -17.952566
80.993805 43.522423 -17.487906
81.993805 42.522419 -17.445730
82.993805 42.185169 -17.100760
82.688263 42.522419 -17.100760
81.993805 43.304401 -17.100760
81.993805 43.522423 -17.017508
82.993805 42.522419 -16.961416
82.993805 43.522423 -16.554983
83.993805 40.522419 -17.264151
84.294464 40.522419 -17.100760
83.543060 41.522419 -17.100760
83.993805 40.920216 -17.100760
84.993805 40.522419 -16.734793
83.993805 41.522419 -16.869009
84.993805 41.522419 -16.343374
86.151276 40.522419 -16.100760
85.993805 40.748981 -16.100760
85.472198 41.522419 -16.100760
86.993805 40.522419 -15.652945
85.993805 41.522419 -15.819815
86.993805 41.522419 -15.306814
83.993805 42.522419 -16.464590
84.993805 42.182331 -16.100760
84.714386 42.522419 -16.100760
83.993805 43.421589 -16.100760
84.993805 42.522419 -15.965750
84.993805 43.522423 -15.586721
85.993805 42.522419 -15.465506
86.993805 42.176868 -15.100760
86.732819 42.522419 -15.100760
86.035919 43.522423 -15.100760
87.993805 36.522419 -16.375906
88.446320 36.522419 -16.100760
87.993805 37.499561 -16.100760
88.993805 36.522419 -15.782888
88.993805 37.522419 -15.509085
90.144989 36.522419 -15.100760
89.993805 36.868824 -15.100760
89.718353 37.522419 -15.100760
87.453461 38.522419 -16.100760
87.993805 38.522419 -15.781790
88.993805 38.522419 -15.220510
87.993805 39.522419 -15.453787
88.993805 38.897083 -15.100760
88.640106 39.522419 -15.100760
89.220428 38.522419 -15.100760
88.033234 40.522419 -15.100760
87.430145 41.522419 -15.100760
79.170319 44.522423 -18.100760
79.993805 44.522423 -17.580435
80.993805 44.467278 -17.100760
79.993805 45.522423 -17.231558
80.237701 45.522423 -17.100760
79.993805 45.942772 -17.100760
79.700531 46.522423 -17.100760
79.287079 47.522423 -17.100760
80.993805 45.522423 -16.749624
81.993805 44.522423 -16.637564
82.993805 44.707695 -16.100760
81.993805 45.522423 -16.292837
82.378510 45.522423 -16.100760
82.993805 45.522423 -15.826162
79.993805 46.522423 -16.930777
80.993805 46.522423 -16.431448
79.993805 47.522423 -16.641409
81.031952 47.522423 -16.100760
81.993805 46.125145 -16.100760
81.715485 46.522423 -16.100760
81.993805 46.522423 -15.969351
82.993805 46.522423 -15.506765
81.993805 47.522423 -15.650869
82.993805 47.522423 -15.207449
83.149078 44.522423 -16.100760
83.993805 44.522423 -15.695120
84.993805 44.522423 -15.241568
83.993805 45.522423 -15.362295
84.993805 44.939873 -15.100760
84.580963 45.522423 -15.100760
85.331329 44.522423 -15.100760
83.993805 46.407890 -15.100760
83.256439 47.522423 -15.100760
79.993805 48.522423 -16.349661
80.434662 48.522423 -16.100760
79.993805 49.453636 -16.100760
80.993805 48.522423 -15.826468
80.993805 49.522423 -15.567312
81.993805 48.522423 -15.362783
82.993805 47.920525 -15.100760
82.572723 48.522423 -15.100760
82.022736 49.522423 -15.100760
79.656464 50.522423 -16.100760
79.448883 51.522423 -16.100760
79.993805 50.522423 -15.890860
80.993805 50.522423 -15.372061
79.993805 51.522423 -15.758780
80.993805 51.522423 -15.243155
81.607269 50.522423 -15.100760
81.321686 51.522423 -15.100760
86.993805 42.522419 -14.988394
86.993805 43.522423 -14.665518
90.993805 36.522419 -14.621450
89.993805 37.522419 -14.938162
90.993805 37.522419 -14.340872
88.993805 39.522419 -14.921865
89.993805 38.522419 -14.655020
90.993805 38.334675 -14.100760
89.993805 39.522419 -14.343985
90.379242 39.522419 -14.100760
90.993805 39.522419 -13.744558
91.993805 36.363178 -14.100760
91.417267 37.522419 -14.100760
92.993805 36.522419 -13.528921
91.993805 37.522419 -13.763662
92.993805 37.522419 -13.221304
93.993805 36.325336 -13.100760
93.993805 36.522419 -13.032277
93.229462 37.522419 -13.100760
91.993805 38.522419 -13.456106
92.993805 37.909657 -13.100760
92.633392 38.522419 -13.100760
92.098297 39.522419 -13.100760
94.993805 36.522419 -12.541127
93.993805 37.522419 -12.707936
95.147682 37.522419 -12.100759
92.993805 38.522419 -12.913442
92.993805 39.522419 -12.611501
93.993805 38.522419 -12.371755
94.993805 37.747059 -12.100759
94.471344 38.522419 -12.100759
93.993805 39.369221 -12.100759
94.993805 38.522419 -11.824208
94.993805 39.522419 -11.502736
88.993805 40.522419 -14.601248
87.993805 41.522419 -14.810476
88.993805 41.522419 -14.273184
89.993805 40.297352 -14.100760
89.993805 40.522419 -14.024282
89.307709 41.522419 -14.100760
90.993805 40.522419 -13.438833
89.993805 41.522419 -13.706350
91.053680 41.522419 -13.100760
87.993805 42.522419 -14.489370
88.993805 42.075397 -14.100760
88.709320 42.522419 -14.100760
88.094208 43.522423 -14.100760
88.993805 42.522419 -13.954885
88.993805 43.522423 -13.633963
89.993805 42.522419 -13.393911
90.516937 42.522419 -13.100760
89.993805 43.496876 -13.100760
90.993805 42.522419 -12.852101
90.993805 43.522423 -12.587026
91.993805 39.733753 -13.100760
91.595062 40.522419 -13.100760
91.993805 40.522419 -12.873952
92.993805 40.522419 -12.312978
91.993805 41.522419 -12.585134
92.993805 41.268879 -12.100759
92.993805 41.522419 -12.039296
93.392426 40.522419 -12.100759
93.993805 40.522419 -11.763356
94.993805 40.522419 -11.215505
93.993805 41.522419 -11.496877
94.993805 40.930561 -11.100759
94.719513 41.522419 -11.100759
91.993805 42.522419 -12.319631
92.396454 42.522419 -12.100759
91.993805 43.413013 -12.100759
92.993805 42.522419 -11.797536
92.993805 43.522423 -11.569753
93.993805 42.522419 -11.269094
94.303925 42.522419 -11.100759
93.993805 43.275532 -11.100759
93.993805 43.522423 -11.054616
94.993805 41.522419 -10.964650
94.993805 42.522419 -10.743947
94.993805 43.522423 -10.521779
84.993805 45.522423 -14.935110
85.993805 44.522423 -14.806936
86.993805 44.522423 -14.338308
85.993805 45.522423 -14.493521
86.993805 45.252037 -14.100760
86.993805 45.522423 -14.026114
84.993805 46.522423 -14.652639
83.993805 47.522423 -14.794485
84.993805 47.522423 -14.372427
85.993805 46.522423 -14.199453
86.191010 46.522423 -14.100760
85.993805 46.856621 -14.100760
85.639008 47.522423 -14.100760
86.993805 46.522423 -13.744314
85.993805 47.522423 -13.941946
86.993805 47.522423 -13.491323
82.993805 48.522423 -14.944754
82.993805 49.522423 -14.721304
81.993805 50.522423 -14.939749
82.993805 50.522423 -14.551382
81.993805 51.522423 -14.829397
82.993805 51.522423 -14.449453
83.993805 48.522423 -14.537039
85.061981 48.522423 -14.100760
83.993805 49.522423 -14.324942
84.565399 49.522423 -14.100760
84.993805 49.522423 -13.952566
85.993805 48.522423 -13.725393
86.993805 48.522423 -13.278921
85.993805 49.522423 -13.565542
87.037201 49.522423 -13.100760
84.169220 50.522423 -14.100760
83.993805 51.130486 -14.100760
83.993805 51.522423 -14.076529
84.993805 50.522423 -13.818655
84.993805 51.522423 -13.728323
85.993805 50.522423 -13.438772
86.773834 50.522423 -13.100760
85.993805 51.522423 -13.344229
86.566681 51.522423 -13.100760
86.993805 50.522423 -13.008657
86.993805 51.522423 -12.925221
87.993805 43.705833 -14.100760
87.499969 44.522423 -14.100760
87.993805 44.522423 -13.849173
88.993805 44.522423 -13.339224
87.993805 45.522423 -13.551931
88.993805 45.395226 -13.100760
89.463898 44.522423 -13.100760
87.993805 46.522423 -13.276236
88.370575 46.522423 -13.100760
87.993805 47.208061 -13.100760
87.993805 47.522423 -13.031911
89.993805 44.522423 -12.838185
90.993805 44.522423 -12.341847
89.993805 45.522423 -12.595876
91.024750 45.522423 -12.100759
88.993805 46.522423 -12.817861
88.993805 47.522423 -12.582448
89.993805 46.522423 -12.353017
90.516205 46.522423 -12.100759
90.058441 47.522423 -12.100759
90.993805 46.522423 -11.889028
90.993805 47.522423 -11.674855
91.507904 44.522423 -12.100759
91.993805 44.522423 -11.854115
92.993805 44.522423 -11.357289
91.993805 45.522423 -11.636159
93.110077 45.522423 -11.100759
93.523529 44.522423 -11.100759
91.993805 46.522423 -11.419667
92.993805 45.802147 -11.100759
92.660309 46.522423 -11.100759
91.993805 47.522423 -11.214223
92.230194 47.522423 -11.100759
87.386505 48.522423 -13.100760
87.993805 48.522423 -12.823964
88.993805 48.522423 -12.374745
87.993805 49.522423 -12.669301
88.993805 49.522423 -12.210317
89.628204 48.522423 -12.100759
89.248016 49.522423 -12.100759
89.993805 48.522423 -11.931081
90.993805 48.522423 -11.468129
89.993805 49.522423 -11.753407
90.993805 49.522423 -11.280019
87.993805 50.522423 -12.559804
88.993805 50.421440 -12.100759
87.993805 51.522423 -12.475759
88.765228 51.522423 -12.100759
88.993805 51.522423 -11.998097
89.993805 50.522423 -11.617055
91.038605 50.522423 -11.100759
89.993805 51.522423 -11.501760
90.740936 51.522423 -11.100759
91.993805 48.076653 -11.100759
91.799408 48.522423 -11.100759
91.387726 49.522423 -11.100759
93.993805 44.522423 -10.856557
94.993805 44.522423 -10.314076
93.993805 45.522423 -10.656423
95.009071 45.522423 -10.100759
92.993805 46.522423 -10.950185
92.993805 47.522423 -10.737660
93.993805 46.522423 -10.432485
94.579926 46.522423 -10.100759
94.140656 47.522423 -10.100759
94.993805 46.522423 -9.868886
94.993805 47.522423 -9.589711
90.993805 51.522423 -10.965322
91.993805 48.522423 -11.004384
92.993805 48.522423 -10.493032
91.993805 49.522423 -10.794057
92.993805 49.522423 -10.221120
93.993805 47.867485 -10.100759
93.675323 48.522423 -10.100759
93.188385 49.522423 -10.100759
93.993805 48.522423 -9.905934
94.993805 48.522423 -9.243032
93.993805 49.522423 -9.569753
94.993805 48.853081 -9.100758
94.631073 49.522423 -9.100758
91.993805 50.522423 -10.589162
92.993805 49.980186 -10.100759
